# .PCD v0.7 - Point Cloud Data file format
VERSION 0.7
FIELDS x y z rgb
SIZE 4 4 4 4
TYPE F F F F
COUNT 1 1 1 1
WIDTH 982
HEIGHT 1
VIEWPOINT 0 0 0 1 0 0 0
POINTS 982
DATA ascii
1.8845716 -1.6645271 -4.8279762e-06 4.978564e-39
1.8951429 -1.6638577 -4.1723251e-06 4.978564e-39
1.9057951 -1.6652995 -5.0663948e-06 4.978564e-39
1.9165121 -1.6646309 -6.5565109e-06 4.978564e-39
1.9236978 -1.666307 -6.0796738e-06 4.978564e-39
1.9345419 -1.6656353 -5.6922436e-06 4.978564e-39
1.9454532 -1.6649609 -6.5565109e-06 4.978564e-39
1.9527701 -1.6645074 -6.0796738e-06 4.978564e-39
1.9638124 -1.6638229 -5.543232e-06 4.978564e-39
1.9749228 -1.6652952 -5.4836273e-06 4.978564e-39
1.9861192 -1.66461 -5.7220459e-06 4.978564e-39
1.997386 -1.6660976 -7.2717667e-06 4.978564e-39
2.0049415 -1.6656394 -6.7949295e-06 4.978564e-39
2.0125325 -1.6651793 -6.6757202e-06 4.978564e-39
2.023989 -1.6644845 -6.1392784e-06 4.978564e-39
2.0355167 -1.6637858 -5.8412552e-06 4.978564e-39
2.0432522 -1.6655246 -7.0333481e-06 4.978564e-39
2.0549247 -1.664825 -6.5565109e-06 4.978564e-39
2.0666695 -1.6663413 -5.364418e-06 4.978564e-39
2.0745513 -1.6658757 -6.5565109e-06 4.978564e-39
2.0824666 -1.6654048 -5.0067902e-06 4.978564e-39
2.0949569 -1.664044 -0.00033783173 4.978564e-39
2.1064503 -1.6639879 -8.1062317e-06 4.978564e-39
2.1145184 -1.6635089 -7.2717667e-06 4.978564e-39
2.1226256 -1.6652864 -6.4373016e-06 4.978564e-39
2.1340477 -1.6655257 -6.8426134e-06 4.978564e-39
2.147187 -1.6661248 -8.1062317e-06 4.978564e-39
2.1554499 -1.665644 -6.3180923e-06 4.978564e-39
2.1637537 -1.6651616 -5.364418e-06 4.978564e-39
2.1720989 -1.6646777 -4.7683716e-06 4.978564e-39
2.1847017 -1.6639498 -6.2584877e-06 4.978564e-39
2.1973865 -1.6655256 -7.6293945e-06 4.978564e-39
2.2058957 -1.6696658 -6.7949295e-06 4.978564e-39
2.2144465 -1.6691866 -6.0796738e-06 4.978564e-39
2.3572392 -1.6612015 -5.364418e-06 4.978564e-39
1.1867607 -1.6514004 -2.9802322e-06 4.978564e-39
1.1958582 -1.6534897 -4.8279762e-06 4.978564e-39
1.2060957 -1.656323 -3.695488e-06 4.978564e-39
1.2147861 -1.6555943 -4.0729842e-06 4.978564e-39
1.223538 -1.6548611 -4.7087669e-06 4.978564e-39
1.2345682 -1.6539369 -5.4041543e-06 4.978564e-39
1.2456901 -1.6563553 -6.377697e-06 4.978564e-39
1.254341 -1.6560001 -0.0010352443 4.978564e-39
1.2636939 -1.6548667 -4.4703484e-06 4.978564e-39
1.2750833 -1.653928 -5.4041543e-06 4.978564e-39
1.2865685 -1.6563854 -6.2584877e-06 4.978564e-39
1.2958317 -1.6556305 -4.1127205e-06 4.978564e-39
1.3051664 -1.6548754 -6.4969063e-06 4.978564e-39
1.3145658 -1.6541104 -5.1259995e-06 4.978564e-39
1.3235599 -1.6540711 -4.8637389e-06 4.978564e-39
1.3335742 -1.6560332 -4.7683716e-06 4.978564e-39
1.3431846 -1.6552668 -5.7220459e-06 4.978564e-39
1.3528641 -1.6544919 -4.4703484e-06 4.978564e-39
1.3644571 -1.654006 -5.0216913e-06 4.978564e-39
1.377381 -1.6560568 -2.8014183e-06 4.978564e-39
1.3873192 -1.6552788 -5.1259995e-06 4.978564e-39
1.3973309 -1.6544933 -5.6624413e-06 4.978564e-39
1.4064409 -1.6545873 -0.0012174653 4.978564e-39
1.4150299 -1.6548899 -4.8875809e-06 4.978564e-39
1.4226907 -1.6560858 -4.7087669e-06 4.978564e-39
1.4329699 -1.6552916 -4.1723251e-06 4.978564e-39
1.443329 -1.6544924 -4.8081079e-06 4.978564e-39
1.4532435 -1.654453 -5.0067902e-06 4.978564e-39
1.4648145 -1.655748 -5.0783156e-06 4.978564e-39
1.4748875 -1.6557118 -5.7021775e-06 4.978564e-39
1.4855705 -1.6549011 -5.7220459e-06 4.978564e-39
1.4963361 -1.6540834 -5.1259995e-06 4.978564e-39
1.5071862 -1.6551085 -4.5895576e-06 4.978564e-39
1.5153775 -1.6544921 -4.4107437e-06 4.978564e-39
1.5236243 -1.6557335 -5.8015189e-06 4.978564e-39
1.5346894 -1.6549071 -4.6491623e-06 4.978564e-39
1.5458459 -1.6540779 -6.4373016e-06 4.978564e-39
1.557088 -1.6551206 -5.4836273e-06 4.978564e-39
1.5655762 -1.6544927 -4.8875809e-06 4.978564e-39
1.5741218 -1.655755 -5.1259995e-06 4.978564e-39
1.5855922 -1.6549147 -4.7683716e-06 4.978564e-39
1.5942541 -1.6542817 -5.6028366e-06 4.978564e-39
1.6023899 -1.6544504 -4.6253203e-06 4.978564e-39
1.6146792 -1.6547072 -5.9604645e-06 4.978564e-39
1.6264814 -1.6557808 -7.1525574e-06 4.978564e-39
1.6353906 -1.6551384 -5.4836273e-06 4.978564e-39
1.6443619 -1.6544923 -4.8279762e-06 4.978564e-39
1.6564069 -1.6555744 -4.529953e-06 4.978564e-39
1.6655037 -1.6549269 -4.8875809e-06 4.978564e-39
1.6752768 -1.6554096 -5.9127806e-06 4.978564e-39
1.6838719 -1.6555835 -3.4570694e-06 4.978564e-39
1.6931494 -1.6549321 -5.9604645e-06 4.978564e-39
1.7049783 -1.6548922 -6.9856642e-06 4.978564e-39
1.7150058 -1.6553755 -4.529953e-06 4.978564e-39
1.7244787 -1.6547148 -5.6624413e-06 4.978564e-39
1.7340034 -1.654049 -5.6028366e-06 4.978564e-39
1.7435955 -1.6553844 -5.0465264e-06 4.978564e-39
1.7564774 -1.6544933 -5.6028366e-06 4.978564e-39
1.7662059 -1.6558399 -4.529953e-06 4.978564e-39
1.7760069 -1.6551692 -5.6624413e-06 4.978564e-39
1.7858646 -1.654495 -6.7949295e-06 4.978564e-39
1.7964538 -1.6549934 -5.4836273e-06 4.978564e-39
1.8057729 -1.6551743 -4.1325889e-06 4.978564e-39
1.8158327 -1.6544938 -6.1392784e-06 4.978564e-39
1.8259473 -1.6558671 -5.0663948e-06 4.978564e-39
1.8361394 -1.6551841 -7.0333481e-06 4.978564e-39
1.8463895 -1.6544955 -7.2717667e-06 4.978564e-39
1.8532623 -1.6540331 -6.9141388e-06 4.978564e-39
1.8636316 -1.6554209 -5.9008598e-06 4.978564e-39
1.8740629 -1.6547259 -5.364418e-06 4.978564e-39
1.8838688 -1.6549135 -4.839897e-06 4.978564e-39
1.8951429 -1.6554284 -4.1723251e-06 4.978564e-39
1.9057951 -1.6547276 -5.0663948e-06 4.978564e-39
1.9165121 -1.6540232 -6.5565109e-06 4.978564e-39
1.9228835 -1.6560736 -0.00061559048 4.978564e-39
1.9345425 -1.6549683 -6.1988831e-06 4.978564e-39
1.9454532 -1.6563976 -6.5565109e-06 4.978564e-39
1.9527719 -1.6559262 -7.390976e-06 4.978564e-39
1.9638124 -1.6552107 -5.543232e-06 4.978564e-39
1.9749229 -1.6544933 -5.4836273e-06 4.978564e-39
1.986119 -1.6537708 -5.7220459e-06 4.978564e-39
1.9973847 -1.6552197 -6.4770379e-06 4.978564e-39
2.0049415 -1.6547374 -6.7949295e-06 4.978564e-39
2.0125325 -1.6564374 -6.6757202e-06 4.978564e-39
2.023989 -1.6557122 -6.1392784e-06 4.978564e-39
2.0355167 -1.6549828 -5.8412552e-06 4.978564e-39
2.0432522 -1.6544952 -7.0333481e-06 4.978564e-39
2.054925 -1.6537565 -6.5565109e-06 4.978564e-39
2.0666702 -1.6552342 -5.8015189e-06 4.978564e-39
2.0745513 -1.6547419 -6.5565109e-06 4.978564e-39
2.0824676 -1.6564777 -5.7220459e-06 4.978564e-39
2.094563 -1.6546923 -0.00053057924 4.978564e-39
2.1064503 -1.6549959 -8.1062317e-06 4.978564e-39
2.1145184 -1.6544955 -7.2717667e-06 4.978564e-39
2.1245496 -1.6550074 -0.00068355934 4.978564e-39
2.135685 -1.6545465 -6.8664549e-06 4.978564e-39
2.147187 -1.6547494 -8.1062317e-06 4.978564e-39
2.1554499 -1.6565217 -6.3180923e-06 4.978564e-39
2.1637537 -1.6560173 -5.364418e-06 4.978564e-39
2.1847012 -1.6570493 -5.9604645e-06 4.978564e-39
1.1768587 -1.6435724 -5.6823096e-06 4.978564e-39
1.1846336 -1.6450478 -3.5762787e-06 4.978564e-39
1.1953223 -1.6440966 -5.2187179e-06 4.978564e-39
1.2057863 -1.6455168 -3.5592489e-06 4.978564e-39
1.2147872 -1.6456696 -5.543232e-06 4.978564e-39
1.223538 -1.6448997 -4.7087669e-06 4.978564e-39
1.2345681 -1.6439312 -5.4041543e-06 4.978564e-39
1.2456901 -1.6463052 -6.377697e-06 4.978564e-39
1.2546592 -1.6455269 -4.5895576e-06 4.978564e-39
1.2636939 -1.6447449 -4.4703484e-06 4.978564e-39
1.2745098 -1.6442325 -3.8295984e-06 4.978564e-39
1.2865685 -1.6461722 -6.2584877e-06 4.978564e-39
1.2958328 -1.6453813 -5.1856041e-06 4.978564e-39
1.3051666 -1.644588 -6.4969063e-06 4.978564e-39
1.3145658 -1.6437854 -5.1259995e-06 4.978564e-39
1.3245102 -1.6457021 -4.6968462e-06 4.978564e-39
1.3335742 -1.6456321 -4.7683716e-06 4.978564e-39
1.3431846 -1.6448274 -5.7220459e-06 4.978564e-39
1.3528641 -1.6440138 -4.4703484e-06 4.978564e-39
1.365772 -1.6454407 -5.4155075e-06 4.978564e-39
1.3773814 -1.6454815 -3.2981236e-06 4.978564e-39
1.3873187 -1.6446629 -4.609426e-06 4.978564e-39
1.3973309 -1.6438376 -5.6624413e-06 4.978564e-39
1.4079239 -1.6458168 -5.4359434e-06 4.978564e-39
1.4150299 -1.6459513 -4.8875809e-06 4.978564e-39
1.4226907 -1.6453289 -4.7087669e-06 4.978564e-39
1.43297 -1.6444935 -4.1723251e-06 4.978564e-39
1.4428084 -1.6444174 -3.9100646e-06 4.978564e-39
1.4542907 -1.6456652 -4.4107437e-06 4.978564e-39
1.4642869 -1.645593 -5.543232e-06 4.978564e-39
1.4748874 -1.6447462 -5.543232e-06 4.978564e-39
1.4855708 -1.6438934 -5.9604645e-06 4.978564e-39
1.4955413 -1.6444734 -0.0005894975 4.978564e-39
1.5071863 -1.6458631 -4.5895576e-06 4.978564e-39
1.5153775 -1.6452194 -4.4107437e-06 4.978564e-39
1.5236243 -1.6445733 -5.8412552e-06 4.978564e-39
1.5341339 -1.6444941 -4.6491623e-06 4.978564e-39
1.5458448 -1.6447027 -5.7518482e-06 4.978564e-39
1.557088 -1.6457094 -5.4836273e-06 4.978564e-39
1.5655762 -1.6450529 -4.8875809e-06 4.978564e-39
1.5741224 -1.644394 -5.6028366e-06 4.978564e-39
1.5855927 -1.645409 -5.2452087e-06 4.978564e-39
1.5942543 -1.6447465 -5.6028366e-06 4.978564e-39
1.6035554 -1.645182 -4.6730042e-06 4.978564e-39
1.6146787 -1.6451035 -5.4836273e-06 4.978564e-39
1.6264814 -1.6442099 -7.1525574e-06 4.978564e-39
1.6353906 -1.6454662 -5.4836273e-06 4.978564e-39
1.6443619 -1.6447904 -4.8279762e-06 4.978564e-39
1.6564069 -1.6458325 -4.529953e-06 4.978564e-39
1.6655039 -1.6451546 -4.8875809e-06 4.978564e-39
1.6746635 -1.6444722 -5.1657357e-06 4.978564e-39
1.6838752 -1.6457535 -6.3180923e-06 4.978564e-39
1.6931499 -1.6450682 -6.1988831e-06 4.978564e-39
1.7062289 -1.6452926 -6.9618227e-06 4.978564e-39
1.7150058 -1.6454386 -4.529953e-06 4.978564e-39
1.7244786 -1.6447462 -5.6624413e-06 4.978564e-39
1.7340034 -1.6440487 -5.6028366e-06 4.978564e-39
1.7435949 -1.6453516 -4.5895576e-06 4.978564e-39
1.7564757 -1.6444166 -4.2915344e-06 4.978564e-39
1.7662059 -1.6457324 -4.529953e-06 4.978564e-39
1.7760071 -1.6450292 -5.6624413e-06 4.978564e-39
1.7858645 -1.644322 -6.7949295e-06 4.978564e-39
1.7957904 -1.6456482 -5.7220459e-06 4.978564e-39
1.8057742 -1.6449363 -5.0067902e-06 4.978564e-39
1.8158329 -1.6442213 -6.1392784e-06 4.978564e-39
1.8259455 -1.6455592 -3.8146973e-06 4.978564e-39
1.8361384 -1.6448427 -6.0796738e-06 4.978564e-39
1.8463895 -1.6461961 -7.2717667e-06 4.978564e-39
1.8532623 -1.6457152 -6.9141388e-06 4.978564e-39
1.8636315 -1.6449891 -5.9008598e-06 4.978564e-39
1.8740629 -1.6442595 -5.364418e-06 4.978564e-39
1.8852743 -1.6447366 -4.8160555e-06 4.978564e-39
1.8951429 -1.6448919 -4.1723251e-06 4.978564e-39
1.9050829 -1.6450516 -5.1498414e-06 4.978564e-39
1.9165103 -1.6455355 -5.2452087e-06 4.978564e-39
1.9236999 -1.6450454 -7.5101852e-06 4.978564e-39
1.9345428 -1.6443006 -6.4373016e-06 4.978564e-39
1.9454532 -1.6456934 -6.5565109e-06 4.978564e-39
1.9527718 -1.6451977 -7.390976e-06 4.978564e-39
1.963074 -1.6453578 -5.5313112e-06 4.978564e-39
1.9757304 -1.6450797 -0.0014696764 4.978564e-39
1.986119 -1.6450992 -5.7220459e-06 4.978564e-39
1.9973824 -1.6443408 -4.8875809e-06 4.978564e-39
2.0049396 -1.6438336 -5.4836273e-06 4.978564e-39
2.0125325 -1.6455101 -6.6757202e-06 4.978564e-39
2.023989 -1.6447468 -6.1392784e-06 4.978564e-39
2.0355167 -1.6461797 -5.8412552e-06 4.978564e-39
2.0432522 -1.6456716 -7.0333481e-06 4.978564e-39
2.0549252 -1.6449021 -6.8545341e-06 4.978564e-39
2.0666711 -1.6441277 -6.6757202e-06 4.978564e-39
2.0745513 -1.6436083 -6.5565109e-06 4.978564e-39
2.0824676 -1.6453176 -5.7220459e-06 4.978564e-39
2.0936189 -1.6454862 -4.9829482e-06 4.978564e-39
2.1064503 -1.6460042 -8.1062317e-06 4.978564e-39
2.1145184 -1.6454821 -7.2717667e-06 4.978564e-39
2.1226165 -1.6443192 -0.00081931736 4.978564e-39
2.1356583 -1.6445824 -0.00068878348 4.978564e-39
2.147187 -1.6433738 -8.1062317e-06 4.978564e-39
2.1554499 -1.6451186 -6.3180923e-06 4.978564e-39
2.1637537 -1.6445866 -5.364418e-06 4.978564e-39
2.338753 -1.6454165 -5.364418e-06 4.978564e-39
2.3479753 -1.6424514 -7.0333481e-06 4.978564e-39
1.1572804 -1.6313251 -2.7418137e-06 4.978564e-39
1.1665676 -1.6340432 -3.8544335e-06 4.978564e-39
1.1761541 -1.6360344 -5.4041543e-06 4.978564e-39
1.1846336 -1.6352416 -3.5762787e-06 4.978564e-39
1.195323 -1.6342486 -5.9604645e-06 4.978564e-39
1.2058563 -1.6349839 -0.00084084301 4.978564e-39
1.2147872 -1.635743 -5.543232e-06 4.978564e-39
1.2235374 -1.6349372 -3.8743019e-06 4.978564e-39
1.2345682 -1.6339257 -5.4041543e-06 4.978564e-39
1.2456901 -1.6362553 -6.377697e-06 4.978564e-39
1.2546592 -1.6354409 -4.5895576e-06 4.978564e-39
1.2636939 -1.6346229 -4.4703484e-06 4.978564e-39
1.2750829 -1.6347243 -4.9273171e-06 4.978564e-39
1.2865685 -1.6359588 -6.2584877e-06 4.978564e-39
1.2958332 -1.6351317 -5.7220459e-06 4.978564e-39
1.3051665 -1.6343002 -6.4969063e-06 4.978564e-39
1.3140943 -1.6341915 -5.3405761e-06 4.978564e-39
1.3240347 -1.6360689 -4.4703484e-06 4.978564e-39
1.3335727 -1.6352292 -3.2186508e-06 4.978564e-39
1.3431846 -1.634388 -5.7220459e-06 4.978564e-39
1.3523793 -1.6342789 -5.5551527e-06 4.978564e-39
1.3650708 -1.6359732 -5.2054725e-06 4.978564e-39
1.3773824 -1.6349068 -4.2915344e-06 4.978564e-39
1.3873186 -1.6340469 -4.3511391e-06 4.978564e-39
1.397331 -1.6349579 -5.6624413e-06 4.978564e-39
1.4074177 -1.6358743 -5.5631003e-06 4.978564e-39
1.4150299 -1.6352249 -4.8875809e-06 4.978564e-39
1.4226907 -1.634572 -4.7087669e-06 4.978564e-39
1.4324541 -1.6344601 -4.1961671e-06 4.978564e-39
1.4438483 -1.6356602 -4.0292739e-06 4.978564e-39
1.4537665 -1.6355504 -4.1127205e-06 4.978564e-39
1.4642874 -1.6346704 -6.0200691e-06 4.978564e-39
1.4743552 -1.634557 -5.4359434e-06 4.978564e-39
1.48557 -1.6347191 -5.2452087e-06 4.978564e-39
1.4963363 -1.6356648 -5.1259995e-06 4.978564e-39
1.5071863 -1.6347686 -4.5895576e-06 4.978564e-39
1.5153775 -1.6340923 -4.4107437e-06 4.978564e-39
1.5236243 -1.6352735 -5.8412552e-06 4.978564e-39
1.5352449 -1.635442 -4.6491623e-06 4.978564e-39
1.5458441 -1.6353279 -5.0465264e-06 4.978564e-39
1.5570889 -1.6344162 -6.2584877e-06 4.978564e-39
1.5655762 -1.6356133 -4.8875809e-06 4.978564e-39
1.5741228 -1.6349261 -5.8412552e-06 4.978564e-39
1.5855927 -1.6359029 -5.2452087e-06 4.978564e-39
1.5942541 -1.6352113 -5.6028366e-06 4.978564e-39
1.6029726 -1.6345137 -4.6491623e-06 4.978564e-39
1.6146775 -1.6354992 -4.529953e-06 4.978564e-39
1.6264813 -1.6345675 -7.1525574e-06 4.978564e-39
1.6353906 -1.635794 -5.4836273e-06 4.978564e-39
1.6443621 -1.6350888 -5.0663948e-06 4.978564e-39
1.656408 -1.634143 -5.4041543e-06 4.978564e-39
1.6655037 -1.6353823 -4.8875809e-06 4.978564e-39
1.6746641 -1.63467 -5.6028366e-06 4.978564e-39
1.6838752 -1.63592 -6.3180923e-06 4.978564e-39
1.6931499 -1.635204 -6.1988831e-06 4.978564e-39
1.7056036 -1.6342431 -6.9737434e-06 4.978564e-39
1.7150058 -1.6355014 -4.529953e-06 4.978564e-39
1.7244787 -1.6347778 -5.6624413e-06 4.978564e-39
1.7358078 -1.6327209 -0.0022393402 4.978564e-39
1.7435948 -1.6353194 -4.5895576e-06 4.978564e-39
1.7564758 -1.6343414 -4.2915344e-06 4.978564e-39
1.7662059 -1.6356249 -4.529953e-06 4.978564e-39
1.7760087 -1.6348908 -6.9141388e-06 4.978564e-39
1.7858646 -1.6341491 -6.7949295e-06 4.978564e-39
1.795791 -1.6354427 -6.0796738e-06 4.978564e-39
1.8057742 -1.6346971 -5.0067902e-06 4.978564e-39
1.8151605 -1.6348215 -6.2942504e-06 4.978564e-39
1.8259455 -1.6352528 -3.8146973e-06 4.978564e-39
1.8361368 -1.6345012 -4.8279762e-06 4.978564e-39
1.8463894 -1.6358217 -7.2717667e-06 4.978564e-39
1.8532623 -1.6353182 -6.9141388e-06 4.978564e-39
1.8636316 -1.6345574 -5.9008598e-06 4.978564e-39
1.8740629 -1.6358862 -5.364418e-06 4.978564e-39
1.8845716 -1.635123 -4.8279762e-06 4.978564e-39
1.8951447 -1.6343569 -5.543232e-06 4.978564e-39
1.9065094 -1.6348034 -6.5565109e-06 4.978564e-39
1.9165087 -1.6349262 -3.9339066e-06 4.978564e-39
1.9244239 -1.6348038 -0.0015313969 4.978564e-39
1.9340442 -1.635141 -0.00083607121 4.978564e-39
1.9454532 -1.6349895 -6.5565109e-06 4.978564e-39
1.9540077 -1.6329924 -0.0011705727 4.978564e-39
1.964551 -1.6349213 -5.5551527e-06 4.978564e-39
1.9749228 -1.6350495 -5.4836273e-06 4.978564e-39
1.9853704 -1.6351808 -5.7220459e-06 4.978564e-39
1.9973824 -1.6356392 -4.8875809e-06 4.978564e-39
2.0049379 -1.6351104 -4.1723251e-06 4.978564e-39
2.0125306 -1.6345813 -5.4240227e-06 4.978564e-39
2.023989 -1.6337814 -6.1392784e-06 4.978564e-39
2.0355179 -1.6351768 -6.6359839e-06 4.978564e-39
2.0432522 -1.634642 -7.0333481e-06 4.978564e-39
2.0549257 -1.6360478 -7.1525574e-06 4.978564e-39
2.0666711 -1.6352417 -6.6757202e-06 4.978564e-39
2.0745513 -1.6347013 -6.5565109e-06 4.978564e-39
2.0824676 -1.6341574 -5.7220459e-06 4.978564e-39
2.0952182 -1.6346285 -5.5074693e-06 4.978564e-39
2.1064491 -1.6347632 -7.2717667e-06 4.978564e-39
2.1145184 -1.6364686 -7.2717667e-06 4.978564e-39
2.1226256 -1.6359227 -6.4373016e-06 4.978564e-39
2.1348662 -1.6351001 -6.8545341e-06 4.978564e-39
2.147187 -1.6342734 -8.1062317e-06 4.978564e-39
2.1554499 -1.6337156 -6.3180923e-06 4.978564e-39
2.1637537 -1.6331559 -5.364418e-06 4.978564e-39
2.2058976 -1.6349545 -8.1062317e-06 4.978564e-39
2.2144465 -1.6320686 -6.0796738e-06 4.978564e-39
2.2403591 -1.6303449 -6.9141388e-06 4.978564e-39
2.338753 -1.6382087 -5.364418e-06 4.978564e-39
2.3479753 -1.6352252 -7.0333481e-06 4.978564e-39
1.1458979 -1.6227698 -4.4703484e-06 4.978564e-39
1.1552041 -1.6250659 -3.3378601e-06 4.978564e-39
1.1656365 -1.6240387 -3.9736428e-06 4.978564e-39
1.1761537 -1.6262612 -4.8875809e-06 4.978564e-39
1.184635 -1.6254376 -5.3048134e-06 4.978564e-39
1.195323 -1.6243998 -5.9604645e-06 4.978564e-39
1.2060956 -1.625 -3.695488e-06 4.978564e-39
1.2147872 -1.6258162 -5.543232e-06 4.978564e-39
1.2235373 -1.6249756 -3.8743019e-06 4.978564e-39
1.2345676 -1.6239191 -4.6624077e-06 4.978564e-39
1.2456901 -1.6262053 -6.377697e-06 4.978564e-39
1.2546601 -1.6253566 -5.6624413e-06 4.978564e-39
1.2636939 -1.6245009 -4.4703484e-06 4.978564e-39
1.2750821 -1.6245557 -3.8544335e-06 4.978564e-39
1.2865685 -1.6257454 -6.2584877e-06 4.978564e-39
1.2958332 -1.6248814 -5.7220459e-06 4.978564e-39
1.3051666 -1.6240126 -6.4969063e-06 4.978564e-39
1.3150375 -1.6258456 -5.0306321e-06 4.978564e-39
1.3240348 -1.6257061 -4.4703484e-06 4.978564e-39
1.333573 -1.6248288 -3.7352245e-06 4.978564e-39
1.3429941 -1.624193 -0.0011697066 4.978564e-39
1.3533512 -1.6258103 -5.7697298e-06 4.978564e-39
1.3650707 -1.6254463 -5.2054725e-06 4.978564e-39
1.3773826 -1.6243306 -4.2915344e-06 4.978564e-39
1.3868201 -1.6241846 -4.3869018e-06 4.978564e-39
1.3973299 -1.6260771 -4.6690307e-06 4.978564e-39
1.4074178 -1.6251785 -5.6028366e-06 4.978564e-39
1.4150299 -1.6244985 -4.8875809e-06 4.978564e-39
1.4226909 -1.6238152 -4.9670539e-06 4.978564e-39
1.4334866 -1.625733 -4.7206877e-06 4.978564e-39
1.4433289 -1.625587 -4.5895576e-06 4.978564e-39
1.4545858 -1.6242357 -0.00098003459 4.978564e-39
1.4637597 -1.6245228 -6.1035157e-06 4.978564e-39
1.4754195 -1.6256943 -5.6505205e-06 4.978564e-39
1.4855686 -1.6255442 -4.0531158e-06 4.978564e-39
1.4963363 -1.6246138 -5.1259995e-06 4.978564e-39
1.5066416 -1.6244618 -4.6730042e-06 4.978564e-39
1.5153775 -1.6248196 -4.4107437e-06 4.978564e-39
1.5236245 -1.6259736 -6.0598054e-06 4.978564e-39
1.5346903 -1.6250299 -5.364418e-06 4.978564e-39
1.5458432 -1.6240783 -4.2915344e-06 4.978564e-39
1.5568485 -1.625371 -0.0012255765 4.978564e-39
1.5655762 -1.6261735 -4.8875809e-06 4.978564e-39
1.5741228 -1.6254578 -5.8412552e-06 4.978564e-39
1.5855927 -1.624495 -5.2452087e-06 4.978564e-39
1.5942543 -1.6256762 -5.6028366e-06 4.978564e-39
1.6029727 -1.6249493 -4.6491623e-06 4.978564e-39
1.6146775 -1.625896 -4.529953e-06 4.978564e-39
1.6264807 -1.6249243 -6.6955886e-06 4.978564e-39
1.6353917 -1.6241888 -6.4373016e-06 4.978564e-39
1.6443627 -1.6253873 -5.543232e-06 4.978564e-39
1.6564085 -1.6244016 -5.8412552e-06 4.978564e-39
1.6655039 -1.62561 -4.8875809e-06 4.978564e-39
1.6746641 -1.6248671 -5.6028366e-06 4.978564e-39
1.6838752 -1.6241199 -6.3180923e-06 4.978564e-39
1.6931499 -1.6253395 -6.1988831e-06 4.978564e-39
1.7056036 -1.6243373 -6.9737434e-06 4.978564e-39
1.7150058 -1.6255642 -4.529953e-06 4.978564e-39
1.7244787 -1.6248091 -5.6624413e-06 4.978564e-39
1.7340034 -1.6240482 -5.6028366e-06 4.978564e-39
1.7435949 -1.6252873 -4.5895576e-06 4.978564e-39
1.7564765 -1.6242672 -4.9471855e-06 4.978564e-39
1.7662071 -1.6255184 -5.443891e-06 4.978564e-39
1.7760087 -1.6247506 -6.9141388e-06 4.978564e-39
1.7858646 -1.6260108 -6.7949295e-06 4.978564e-39
1.7957909 -1.6252367 -6.0796738e-06 4.978564e-39
1.8057742 -1.6244578 -5.0067902e-06 4.978564e-39
1.8165051 -1.6248573 -5.9843064e-06 4.978564e-39
1.8259455 -1.6249466 -3.8146973e-06 4.978564e-39
1.8354555 -1.6250417 -4.839897e-06 4.978564e-39
1.8463879 -1.6254458 -5.9604645e-06 4.978564e-39
1.8532623 -1.6249208 -6.9141388e-06 4.978564e-39
1.863632 -1.6241262 -6.2584877e-06 4.978564e-39
1.8740629 -1.6254197 -5.364418e-06 4.978564e-39
1.8845725 -1.6246223 -5.4240227e-06 4.978564e-39
1.8951466 -1.6259291 -6.9141388e-06 4.978564e-39
1.905797 -1.6251274 -6.377697e-06 4.978564e-39
1.9165087 -1.6243185 -3.9339066e-06 4.978564e-39
1.9236978 -1.6237804 -6.0796738e-06 4.978564e-39
1.9345422 -1.6250981 -6.0002008e-06 4.978564e-39
1.9454532 -1.6242856 -6.5565109e-06 4.978564e-39
1.9527719 -1.6258866 -7.390976e-06 4.978564e-39
1.9649048 -1.6243416 -0.00031653576 4.978564e-39
1.9749229 -1.6242473 -5.4836273e-06 4.978564e-39
1.9868677 -1.6246674 -5.7220459e-06 4.978564e-39
1.9973825 -1.6247624 -4.8875809e-06 4.978564e-39
2.0049388 -1.6263897 -4.8875809e-06 4.978564e-39
2.0125287 -1.625838 -4.1723251e-06 4.978564e-39
2.0239897 -1.6250097 -6.7353249e-06 4.978564e-39
2.0355186 -1.6241734 -7.0333481e-06 4.978564e-39
2.0432522 -1.6236124 -7.0333481e-06 4.978564e-39
2.0549257 -1.6249794 -7.1525574e-06 4.978564e-39
2.0666711 -1.6263556 -6.6757202e-06 4.978564e-39
2.0745513 -1.6257943 -6.5565109e-06 4.978564e-39
2.0824676 -1.6252294 -5.7220459e-06 4.978564e-39
2.0944185 -1.6243776 -5.2452087e-06 4.978564e-39
2.1064465 -1.6235213 -5.6028366e-06 4.978564e-39
2.1145179 -1.6252013 -6.8346658e-06 4.978564e-39
2.1226256 -1.6246289 -6.4373016e-06 4.978564e-39
2.1348662 -1.6260326 -6.8545341e-06 4.978564e-39
2.147187 -1.6251731 -8.1062317e-06 4.978564e-39
2.1554515 -1.6245947 -7.5101852e-06 4.978564e-39
2.1637537 -1.6240115 -5.364418e-06 4.978564e-39
2.2058957 -1.6256964 -6.7949295e-06 4.978564e-39
2.2144465 -1.6274289 -6.0796738e-06 4.978564e-39
2.2461731 -1.6268368 -6.11941e-06 4.978564e-39
1.1285012 -1.6117287 -4.8875809e-06 4.978564e-39
1.1350204 -1.6136045 -4.0531158e-06 4.978564e-39
1.1448681 -1.6148332 -5.4717066e-06 4.978564e-39
1.1552041 -1.6153774 -3.3378601e-06 4.978564e-39
1.1656376 -1.61431 -5.0862632e-06 4.978564e-39
1.1758517 -1.6155894 -4.7683716e-06 4.978564e-39
1.1846336 -1.6156296 -3.5762787e-06 4.978564e-39
1.195323 -1.6145508 -5.9604645e-06 4.978564e-39
1.2060957 -1.6151081 -3.695488e-06 4.978564e-39
1.2147872 -1.6158899 -5.543232e-06 4.978564e-39
1.2235374 -1.6150141 -3.8743019e-06 4.978564e-39
1.2345679 -1.613914 -5.0067902e-06 4.978564e-39
1.2457647 -1.6154439 -0.00079288345 4.978564e-39
1.2546606 -1.6152712 -6.1988831e-06 4.978564e-39
1.2636939 -1.614379 -4.4703484e-06 4.978564e-39
1.2750822 -1.6149528 -3.4868717e-06 4.978564e-39
1.2865676 -1.615531 -5.1856041e-06 4.978564e-39
1.2958332 -1.6146311 -5.7220459e-06 4.978564e-39
1.3051666 -1.6137251 -6.4969063e-06 4.978564e-39
1.3145663 -1.6162523 -5.7021775e-06 4.978564e-39
1.3240348 -1.6153431 -4.4703484e-06 4.978564e-39
1.3335742 -1.6144291 -4.7683716e-06 4.978564e-39
1.3427005 -1.6142496 -3.8862227e-06 4.978564e-39
1.3528656 -1.6160742 -5.9604645e-06 4.978564e-39
1.3650707 -1.6149192 -5.2054725e-06 4.978564e-39
1.3768876 -1.6145071 -4.2438505e-06 4.978564e-39
1.3878174 -1.6156003 -4.3153764e-06 4.978564e-39
1.3973294 -1.6154208 -4.1723251e-06 4.978564e-39
1.4074174 -1.6144823 -5.3445497e-06 4.978564e-39
1.415031 -1.6137733 -5.9207282e-06 4.978564e-39
1.4226915 -1.6148517 -5.4836273e-06 4.978564e-39
1.4329706 -1.6156996 -4.8875809e-06 4.978564e-39
1.4433289 -1.6147475 -4.5895576e-06 4.978564e-39
1.4532423 -1.6145618 -3.6478043e-06 4.978564e-39
1.4648142 -1.6156883 -4.7445296e-06 4.978564e-39
1.4748874 -1.6155049 -5.543232e-06 4.978564e-39
1.4855684 -1.6145358 -3.8146973e-06 4.978564e-39
1.4957938 -1.6143469 -3.3140182e-06 4.978564e-39
1.5077307 -1.6154903 -4.5061111e-06 4.978564e-39
1.5153786 -1.6155481 -5.364418e-06 4.978564e-39
1.5236253 -1.6148139 -6.4969063e-06 4.978564e-39
1.5341345 -1.6146227 -5.2213668e-06 4.978564e-39
1.5458432 -1.6147041 -4.2915344e-06 4.978564e-39
1.5570878 -1.6155921 -5.2650771e-06 4.978564e-39
1.5655762 -1.6148459 -4.8875809e-06 4.978564e-39
1.5741228 -1.6140962 -5.8412552e-06 4.978564e-39
1.5855927 -1.6149888 -5.2452087e-06 4.978564e-39
1.5942541 -1.616141 -5.6028366e-06 4.978564e-39
1.6029726 -1.6153854 -4.6491623e-06 4.978564e-39
1.6146778 -1.6143724 -4.7683716e-06 4.978564e-39
1.6264796 -1.6152809 -5.7220459e-06 4.978564e-39
1.6353922 -1.6145172 -6.9141388e-06 4.978564e-39
1.6443626 -1.6156855 -5.543232e-06 4.978564e-39
1.6564087 -1.6146597 -5.8412552e-06 4.978564e-39
1.6655037 -1.6158377 -4.8875809e-06 4.978564e-39
1.6746641 -1.6150644 -5.6028366e-06 4.978564e-39
1.6838752 -1.6142864 -6.3180923e-06 4.978564e-39
1.6931483 -1.6154736 -4.8279762e-06 4.978564e-39
1.7056031 -1.614431 -6.5167746e-06 4.978564e-39
1.7150058 -1.6156273 -4.529953e-06 4.978564e-39
1.7244791 -1.614841 -6.0200691e-06 4.978564e-39
1.7340034 -1.6140479 -5.6028366e-06 4.978564e-39
1.7435967 -1.6152567 -5.9008598e-06 4.978564e-39
1.7558296 -1.6150522 -4.8875809e-06 4.978564e-39
1.7662059 -1.6154101 -4.529953e-06 4.978564e-39
1.7760069 -1.6146088 -5.543232e-06 4.978564e-39
1.7858645 -1.6158379 -6.7949295e-06 4.978564e-39
1.795791 -1.6150308 -6.0796738e-06 4.978564e-39
1.8057742 -1.6142187 -5.0067902e-06 4.978564e-39
1.8158329 -1.6154578 -6.1392784e-06 4.978564e-39
1.8259455 -1.6146402 -3.8146973e-06 4.978564e-39
1.836818 -1.6150081 -4.8160555e-06 4.978564e-39
1.8463861 -1.6150699 -4.6491623e-06 4.978564e-39
1.8532611 -1.6145226 -6.0399375e-06 4.978564e-39
1.8636324 -1.6157812 -6.6161156e-06 4.978564e-39
1.8740629 -1.6149533 -5.364418e-06 4.978564e-39
1.8845725 -1.614121 -5.4240227e-06 4.978564e-39
1.8951467 -1.6153926 -6.9141388e-06 4.978564e-39
1.905797 -1.6145552 -6.377697e-06 4.978564e-39
1.9165087 -1.6158323 -3.9339066e-06 4.978564e-39
1.9236978 -1.615275 -6.0796738e-06 4.978564e-39
1.934541 -1.6144294 -5.1259995e-06 4.978564e-39
1.9454532 -1.6135814 -6.5565109e-06 4.978564e-39
1.9527718 -1.6151581 -7.390976e-06 4.978564e-39
1.9630737 -1.6152223 -5.5313112e-06 4.978564e-39
1.9749229 -1.6156056 -5.4836273e-06 4.978564e-39
1.9861201 -1.6147497 -6.377697e-06 4.978564e-39
1.9973824 -1.6138854 -4.8875809e-06 4.978564e-39
2.0049398 -1.6154884 -5.6028366e-06 4.978564e-39
2.0125287 -1.6149107 -4.1723251e-06 4.978564e-39
2.0244346 -1.6153692 -0.00033653644 4.978564e-39
2.0355186 -1.6153705 -7.0333481e-06 4.978564e-39
2.0432522 -1.6147888 -7.0333481e-06 4.978564e-39
2.0549257 -1.6139109 -7.1525574e-06 4.978564e-39
2.0666711 -1.6152481 -6.6757202e-06 4.978564e-39
2.0745513 -1.6146606 -6.5565109e-06 4.978564e-39
2.0824676 -1.6163013 -5.7220459e-06 4.978564e-39
2.0944185 -1.6154177 -5.2452087e-06 4.978564e-39
2.1064465 -1.6145294 -5.6028366e-06 4.978564e-39
2.1145167 -1.6139336 -5.9604645e-06 4.978564e-39
2.1226273 -1.6133366 -7.6889992e-06 4.978564e-39
2.1340485 -1.6156666 -7.4148179e-06 4.978564e-39
2.147187 -1.6160727 -8.1062317e-06 4.978564e-39
2.1554515 -1.6154722 -7.5101852e-06 4.978564e-39
2.1637537 -1.614867 -5.364418e-06 4.978564e-39
2.1973846 -1.6101198 -6.4373016e-06 4.978564e-39
2.2230434 -1.6128935 -7.5101852e-06 4.978564e-39
1.1150361 -1.6015002 -5.284945e-06 4.978564e-39
1.1249549 -1.6053243 -4.1276217e-06 4.978564e-39
1.134611 -1.6046791 -2.9206276e-06 4.978564e-39
1.1448693 -1.6046511 -6.3180923e-06 4.978564e-39
1.1552041 -1.6056886 -3.3378601e-06 4.978564e-39
1.1656375 -1.6045794 -5.0862632e-06 4.978564e-39
1.1761537 -1.6050893 -4.8875809e-06 4.978564e-39
1.1846336 -1.6058232 -3.5762787e-06 4.978564e-39
1.1953229 -1.6047018 -5.7750276e-06 4.978564e-39
1.206405 -1.6044768 -3.8317271e-06 4.978564e-39
1.2147872 -1.6059631 -5.543232e-06 4.978564e-39
1.2235383 -1.6050538 -5.0266585e-06 4.978564e-39
1.2345674 -1.6039076 -4.2915344e-06 4.978564e-39
1.2460737 -1.6065222 -0.00098671403 4.978564e-39
1.2546607 -1.6051855 -6.2187514e-06 4.978564e-39
1.2636939 -1.604257 -4.4703484e-06 4.978564e-39
1.2750821 -1.6053504 -3.8544335e-06 4.978564e-39
1.2865671 -1.6053171 -4.6491623e-06 4.978564e-39
1.2958336 -1.6043814 -6.2386193e-06 4.978564e-39
1.3046979 -1.604171 -6.246567e-06 4.978564e-39
1.3145674 -1.6059284 -6.7353249e-06 4.978564e-39
1.3240348 -1.6049801 -4.4703484e-06 4.978564e-39
1.3335742 -1.6040281 -4.7882399e-06 4.978564e-39
1.3436656 -1.605805 -4.4584276e-06 4.978564e-39
1.3528651 -1.6055955 -5.443891e-06 4.978564e-39
1.3650708 -1.6043925 -5.2054725e-06 4.978564e-39
1.3778775 -1.6059515 -4.3392183e-06 4.978564e-39
1.3873186 -1.6057382 -4.3511391e-06 4.978564e-39
1.3973299 -1.6047655 -4.6491623e-06 4.978564e-39
1.4069107 -1.6045485 -4.7683716e-06 4.978564e-39
1.4150314 -1.6048353 -6.4373016e-06 4.978564e-39
1.4226915 -1.6058875 -5.4836273e-06 4.978564e-39
1.4329706 -1.6049017 -4.8875809e-06 4.978564e-39
1.4433289 -1.6039082 -4.5895576e-06 4.978564e-39
1.4542904 -1.6057599 -3.9815905e-06 4.978564e-39
1.464286 -1.6055403 -4.529953e-06 4.978564e-39
1.4748874 -1.6045395 -5.543232e-06 4.978564e-39
1.4850322 -1.6043131 -3.8385392e-06 4.978564e-39
1.4968749 -1.605407 -3.5047531e-06 4.978564e-39
1.5064061 -1.6057903 -0.00082923524 4.978564e-39
1.5153793 -1.6044216 -5.8412552e-06 4.978564e-39
1.5230739 -1.6044499 -6.4134597e-06 4.978564e-39
1.5352458 -1.6055588 -5.5074693e-06 4.978564e-39
1.5458432 -1.6053301 -4.2915344e-06 4.978564e-39
1.5570871 -1.604298 -4.7882399e-06 4.978564e-39
1.5655762 -1.6054063 -4.8875809e-06 4.978564e-39
1.5741227 -1.604628 -5.8412552e-06 4.978564e-39
1.5855931 -1.6054827 -5.463759e-06 4.978564e-39
1.5942541 -1.6046988 -5.6028366e-06 4.978564e-39
1.6023903 -1.6047275 -5.1498414e-06 4.978564e-39
1.6146784 -1.6047699 -5.2452087e-06 4.978564e-39
1.6264788 -1.6056377 -5.0067902e-06 4.978564e-39
1.6353911 -1.604844 -6.0002008e-06 4.978564e-39
1.6437628 -1.6048734 -5.4836273e-06 4.978564e-39
1.6564085 -1.6049175 -5.8412552e-06 4.978564e-39
1.6655039 -1.6060654 -4.8875809e-06 4.978564e-39
1.674664 -1.6052614 -5.6028366e-06 4.978564e-39
1.6838752 -1.6044531 -6.3180923e-06 4.978564e-39
1.6931481 -1.6056093 -4.8279762e-06 4.978564e-39
1.7056023 -1.6045246 -5.9008598e-06 4.978564e-39
1.7150068 -1.6056913 -5.4041543e-06 4.978564e-39
1.7244797 -1.6048727 -6.377697e-06 4.978564e-39
1.7340034 -1.6040477 -5.6028366e-06 4.978564e-39
1.7435966 -1.6052244 -5.9008598e-06 4.978564e-39
1.7571236 -1.6052719 -5.1021575e-06 4.978564e-39
1.7662059 -1.6053025 -4.529953e-06 4.978564e-39
1.7760053 -1.6044673 -4.2915344e-06 4.978564e-39
1.7858646 -1.605665 -6.7949295e-06 4.978564e-39
1.7948173 -1.60515 -0.00059421523 4.978564e-39
1.8057742 -1.6039796 -5.0067902e-06 4.978564e-39
1.8158327 -1.6051852 -6.1392784e-06 4.978564e-39
1.825946 -1.6043345 -4.2517981e-06 4.978564e-39
1.8361378 -1.6055495 -5.6028366e-06 4.978564e-39
1.8463861 -1.6046956 -4.6491623e-06 4.978564e-39
1.8532606 -1.6041248 -5.6028366e-06 4.978564e-39
1.8636318 -1.6053487 -6.1392784e-06 4.978564e-39
1.8740629 -1.6044868 -5.364418e-06 4.978564e-39
1.8845725 -1.6057198 -5.4240227e-06 4.978564e-39
1.8951466 -1.604856 -6.9141388e-06 4.978564e-39
1.9057969 -1.6039832 -6.377697e-06 4.978564e-39
1.9165087 -1.6052246 -3.9339066e-06 4.978564e-39
1.9236979 -1.6046435 -6.2386193e-06 4.978564e-39
1.934541 -1.605895 -5.1259995e-06 4.978564e-39
1.9454515 -1.6050167 -5.3048134e-06 4.978564e-39
1.9527719 -1.6044297 -7.390976e-06 4.978564e-39
1.9645512 -1.6047722 -5.7935713e-06 4.978564e-39
1.9749247 -1.6048049 -6.6757202e-06 4.978564e-39
1.9861201 -1.6060781 -6.377697e-06 4.978564e-39
1.9973824 -1.6051838 -4.8875809e-06 4.978564e-39
2.0049398 -1.6045864 -5.6028366e-06 4.978564e-39
2.0125287 -1.6039834 -4.1723251e-06 4.978564e-39
2.0239887 -1.605271 -6.0796738e-06 4.978564e-39
2.0355186 -1.6065674 -7.0333481e-06 4.978564e-39
2.0432522 -1.6059651 -7.0333481e-06 4.978564e-39
2.0549257 -1.6050562 -7.1525574e-06 4.978564e-39
2.0666711 -1.6041406 -6.6757202e-06 4.978564e-39
2.0745513 -1.6035268 -6.5565109e-06 4.978564e-39
2.0824676 -1.6051412 -5.7220459e-06 4.978564e-39
2.0936189 -1.6051763 -4.9829482e-06 4.978564e-39
2.1064475 -1.6055381 -6.1392784e-06 4.978564e-39
2.1145167 -1.6049201 -5.9604645e-06 4.978564e-39
2.1226256 -1.6043001 -6.4373016e-06 4.978564e-39
2.1356862 -1.6046636 -7.7247623e-06 4.978564e-39
2.147187 -1.6046971 -8.1062317e-06 4.978564e-39
2.1554515 -1.6063498 -7.5101852e-06 4.978564e-39
2.1637537 -1.6057224 -5.364418e-06 4.978564e-39
2.1889153 -1.6038308 -6.0796738e-06 4.978564e-39
2.1973846 -1.6031942 -6.4373016e-06 4.978564e-39
2.2144446 -1.6065488 -4.8875809e-06 4.978564e-39
2.2225778 -1.6042637 -0.00061581604 4.978564e-39
2.2316782 -1.6029457 -6.1988831e-06 4.978564e-39
2.3023443 -1.6024356 -7.5101852e-06 4.978564e-39
2.3113761 -1.6017724 -5.9604645e-06 4.978564e-39
1.1057013 -1.5940924 -5.4240227e-06 4.978564e-39
1.1143672 -1.5941648 -5.6425729e-06 4.978564e-39
1.1240441 -1.5956188 -3.707409e-06 4.978564e-39
1.1346126 -1.5950748 -4.6491623e-06 4.978564e-39
1.1452808 -1.5945275 -5.7458878e-06 4.978564e-39
1.1552041 -1.5959998 -3.3378601e-06 4.978564e-39
1.1656377 -1.5948493 -5.0862632e-06 4.978564e-39
1.1764556 -1.5945854 -5.0067902e-06 4.978564e-39
1.1846336 -1.596017 -3.5762787e-06 4.978564e-39
1.1953225 -1.5948524 -5.4041543e-06 4.978564e-39
1.2060962 -1.593675 -4.2915344e-06 4.978564e-39
1.2147872 -1.5960366 -5.543232e-06 4.978564e-39
1.2235389 -1.5950928 -5.6028366e-06 4.978564e-39
1.2345674 -1.5939021 -4.2915344e-06 4.978564e-39
1.2456894 -1.5960542 -5.5631003e-06 4.978564e-39
1.2546607 -1.5950998 -6.2584877e-06 4.978564e-39
1.2636939 -1.5941352 -4.4703484e-06 4.978564e-39
1.2750821 -1.5951829 -3.8544335e-06 4.978564e-39
1.2864439 -1.594672 -0.0006886404 4.978564e-39
1.2958332 -1.5941305 -5.7220459e-06 4.978564e-39
1.305635 -1.5958456 -6.7472456e-06 4.978564e-39
1.3145674 -1.5956031 -6.7353249e-06 4.978564e-39
1.3240347 -1.5946172 -4.4703484e-06 4.978564e-39
1.3330951 -1.5943705 -4.553795e-06 4.978564e-39
1.343183 -1.5961081 -4.1723251e-06 4.978564e-39
1.3528639 -1.5951161 -4.4107437e-06 4.978564e-39
1.3644571 -1.5943679 -5.0216913e-06 4.978564e-39
1.3773836 -1.5961293 -5.4041543e-06 4.978564e-39
1.3873185 -1.5951227 -4.3511391e-06 4.978564e-39
1.3973302 -1.5941104 -4.8875809e-06 4.978564e-39
1.4079232 -1.5958921 -4.8875809e-06 4.978564e-39
1.4150304 -1.5958954 -5.443891e-06 4.978564e-39
1.4226915 -1.5951306 -5.4836273e-06 4.978564e-39
1.4329706 -1.5941035 -4.8875809e-06 4.978564e-39
1.443329 -1.5948755 -4.5895576e-06 4.978564e-39
1.4537663 -1.5956527 -3.8146973e-06 4.978564e-39
1.464286 -1.5946174 -4.529953e-06 4.978564e-39
1.4743558 -1.5943588 -6.0558318e-06 4.978564e-39
1.4861054 -1.5954047 -4.6491623e-06 4.978564e-39
1.496334 -1.5951415 -2.9802322e-06 4.978564e-39
1.5071855 -1.5940881 -3.8146973e-06 4.978564e-39
1.5153792 -1.5951489 -5.8412552e-06 4.978564e-39
1.5241764 -1.595418 -6.5803529e-06 4.978564e-39
1.5346903 -1.5951518 -5.364418e-06 4.978564e-39
1.5458432 -1.5940813 -4.2915344e-06 4.978564e-39
1.5570872 -1.5948865 -4.8279762e-06 4.978564e-39
1.5655762 -1.5959667 -4.8875809e-06 4.978564e-39
1.5741234 -1.5951604 -6.3180923e-06 4.978564e-39
1.5850174 -1.5948911 -5.6505205e-06 4.978564e-39
1.5942543 -1.5951637 -5.6028366e-06 4.978564e-39
1.603556 -1.5954388 -5.1975248e-06 4.978564e-39
1.6146784 -1.5951668 -5.2452087e-06 4.978564e-39
1.6258866 -1.5948943 -5.1259995e-06 4.978564e-39
1.635389 -1.5951698 -4.1723251e-06 4.978564e-39
1.6449625 -1.5954511 -5.6028366e-06 4.978564e-39
1.6564087 -1.5951756 -5.8412552e-06 4.978564e-39
1.6655039 -1.5943388 -4.8875809e-06 4.978564e-39
1.6749176 -1.5950067 -9.827195e-05 4.978564e-39
1.6838752 -1.5946195 -6.3180923e-06 4.978564e-39
1.6931487 -1.5957456 -5.3048134e-06 4.978564e-39
1.7056009 -1.5946177 -4.9471855e-06 4.978564e-39
1.7150074 -1.5957546 -5.8412552e-06 4.978564e-39
1.7244797 -1.5949042 -6.377697e-06 4.978564e-39
1.7340034 -1.5940473 -5.6028366e-06 4.978564e-39
1.7435966 -1.5951921 -5.9008598e-06 4.978564e-39
1.7558298 -1.5949066 -4.9114228e-06 4.978564e-39
1.7662059 -1.5951951 -4.529953e-06 4.978564e-39
1.7760053 -1.5943271 -4.2915344e-06 4.978564e-39
1.7858623 -1.59549 -5.0465264e-06 4.978564e-39
1.7957911 -1.5946193 -6.298224e-06 4.978564e-39
1.8057742 -1.5957882 -5.0067902e-06 4.978564e-39
1.8158337 -1.5949134 -6.8545341e-06 4.978564e-39
1.8259472 -1.5940292 -5.1259995e-06 4.978564e-39
1.8361378 -1.5952091 -5.6028366e-06 4.978564e-39
1.8463861 -1.5943213 -4.6491623e-06 4.978564e-39
1.8532606 -1.5958071 -5.6028366e-06 4.978564e-39
1.8636297 -1.5949152 -4.5895576e-06 4.978564e-39
1.8740629 -1.5940204 -5.364418e-06 4.978564e-39
1.8845725 -1.5952183 -5.4240227e-06 4.978564e-39
1.8951467 -1.5943193 -6.9141388e-06 4.978564e-39
1.905797 -1.5955255 -6.377697e-06 4.978564e-39
1.9165087 -1.5946169 -3.9339066e-06 4.978564e-39
1.9236979 -1.5940119 -6.3180923e-06 4.978564e-39
1.9345413 -1.5952276 -5.3445497e-06 4.978564e-39
1.9454514 -1.5943125 -5.364418e-06 4.978564e-39
1.9527702 -1.5958455 -6.1392784e-06 4.978564e-39
1.9638133 -1.5949266 -6.1392784e-06 4.978564e-39
1.9749247 -1.5940027 -6.6757202e-06 4.978564e-39
1.9861202 -1.5952388 -6.377697e-06 4.978564e-39
1.9973824 -1.5964825 -4.8875809e-06 4.978564e-39
2.0049398 -1.5958648 -5.6028366e-06 4.978564e-39
2.0125287 -1.5952415 -4.1723251e-06 4.978564e-39
2.0239887 -1.5943056 -6.0796738e-06 4.978564e-39
2.0355167 -1.5955621 -5.8412552e-06 4.978564e-39
2.043251 -1.5949346 -6.1988831e-06 4.978564e-39
2.0549257 -1.5962014 -7.1525574e-06 4.978564e-39
2.0666711 -1.5952547 -6.6757202e-06 4.978564e-39
2.0745521 -1.5946205 -7.1525574e-06 4.978564e-39
2.0824676 -1.593981 -5.7220459e-06 4.978564e-39
2.0952201 -1.5943006 -6.5565109e-06 4.978564e-39
2.1064484 -1.5965469 -6.6757202e-06 4.978564e-39
2.1145167 -1.5959067 -5.9604645e-06 4.978564e-39
2.1226256 -1.5952652 -6.4373016e-06 4.978564e-39
2.1348662 -1.594296 -6.9737434e-06 4.978564e-39
2.147187 -1.5933216 -8.1062317e-06 4.978564e-39
2.1554515 -1.5949469 -7.5101852e-06 4.978564e-39
2.1637537 -1.5965779 -5.364418e-06 4.978564e-39
2.1889153 -1.5969222 -6.0796738e-06 4.978564e-39
2.1973846 -1.5962687 -6.4373016e-06 4.978564e-39
2.2144446 -1.5949494 -4.8875809e-06 4.978564e-39
2.2230396 -1.5966116 -5.2452087e-06 4.978564e-39
2.2316773 -1.595951 -5.6624413e-06 4.978564e-39
2.3037124 -1.5948263 -0.00053130859 4.978564e-39
2.3113761 -1.5946193 -5.9604645e-06 4.978564e-39
1.0872411 -1.5825838 -3.695488e-06 4.978564e-39
1.0947405 -1.5846889 -4.6661921e-06 4.978564e-39
1.1043731 -1.5858084 -3.9736428e-06 4.978564e-39
1.1143677 -1.5846401 -6.1988831e-06 4.978564e-39
1.1244485 -1.5850523 -3.9815905e-06 4.978564e-39
1.1346124 -1.5854684 -4.6491623e-06 4.978564e-39
1.1448687 -1.5842818 -5.7617822e-06 4.978564e-39
1.1549072 -1.5854232 -3.1845909e-06 4.978564e-39
1.1656377 -1.585119 -5.0862632e-06 4.978564e-39
1.1761537 -1.5839148 -4.8875809e-06 4.978564e-39
1.1846346 -1.5862122 -4.6888986e-06 4.978564e-39
1.1953216 -1.5850024 -4.2915344e-06 4.978564e-39
1.2060964 -1.5837835 -4.5895576e-06 4.978564e-39
1.214996 -1.5865489 -0.00041230881 4.978564e-39
1.2235388 -1.5851313 -5.6028366e-06 4.978564e-39
1.2345674 -1.5838964 -4.2915344e-06 4.978564e-39
1.2456878 -1.5860022 -3.9339066e-06 4.978564e-39
1.2546607 -1.5850137 -6.2584877e-06 4.978564e-39
1.2636944 -1.5840138 -4.9869218e-06 4.978564e-39
1.2756546 -1.5856595 -5.0514936e-06 4.978564e-39
1.2865671 -1.5848904 -4.6491623e-06 4.978564e-39
1.2958332 -1.5838801 -5.7220459e-06 4.978564e-39
1.3051666 -1.5862917 -6.4969063e-06 4.978564e-39
1.3145673 -1.585278 -6.7353249e-06 4.978564e-39
1.3240347 -1.5842543 -4.4703484e-06 4.978564e-39
1.3335739 -1.5849611 -4.8279762e-06 4.978564e-39
1.343183 -1.5856687 -4.1723251e-06 4.978564e-39
1.3528639 -1.584638 -4.4107437e-06 4.978564e-39
1.3650717 -1.5850959 -5.3346157e-06 4.978564e-39
1.3773838 -1.5855536 -5.9604645e-06 4.978564e-39
1.3873185 -1.5845066 -4.3511391e-06 4.978564e-39
1.3968277 -1.5842185 -4.8637389e-06 4.978564e-39
1.4074169 -1.585959 -4.8279762e-06 4.978564e-39
1.4150282 -1.5851668 -3.4570694e-06 4.978564e-39
1.4226915 -1.5843735 -5.4836273e-06 4.978564e-39
1.4329708 -1.5851052 -4.8875809e-06 4.978564e-39
1.4433289 -1.5858426 -4.5895576e-06 4.978564e-39
1.4537668 -1.5847721 -4.3312707e-06 4.978564e-39
1.4637587 -1.584478 -5.2452087e-06 4.978564e-39
1.4754201 -1.5854805 -6.2704084e-06 4.978564e-39
1.4855691 -1.5851817 -4.529953e-06 4.978564e-39
1.496334 -1.5840906 -2.9802322e-06 4.978564e-39
1.5071855 -1.5848427 -3.8146973e-06 4.978564e-39
1.5153793 -1.5858763 -5.8412552e-06 4.978564e-39
1.523625 -1.5850538 -6.4969063e-06 4.978564e-39
1.5341345 -1.5847504 -5.2213668e-06 4.978564e-39
1.5458432 -1.5847073 -4.2915344e-06 4.978564e-39
1.5570875 -1.5854753 -5.0862632e-06 4.978564e-39
1.5655779 -1.5846406 -6.5565109e-06 4.978564e-39
1.5735505 -1.5846115 -5.0306321e-06 4.978564e-39
1.5861696 -1.5856553 -6.1511992e-06 4.978564e-39
1.5942541 -1.5856285 -5.6028366e-06 4.978564e-39
1.6029735 -1.5847807 -5.3048134e-06 4.978564e-39
1.6140907 -1.5844692 -5.2213668e-06 4.978564e-39
1.6270711 -1.5855253 -4.8875809e-06 4.978564e-39
1.635389 -1.5854975 -4.1723251e-06 4.978564e-39
1.6443626 -1.5846391 -5.543232e-06 4.978564e-39
1.6564087 -1.5854334 -5.8412552e-06 4.978564e-39
1.6655054 -1.584568 -6.2584877e-06 4.978564e-39
1.674665 -1.5856566 -6.377697e-06 4.978564e-39
1.6838752 -1.5847861 -6.3180923e-06 4.978564e-39
1.6925293 -1.5847574 -5.7458878e-06 4.978564e-39
1.705601 -1.5847119 -4.9471855e-06 4.978564e-39
1.7150074 -1.5858177 -5.8412552e-06 4.978564e-39
1.7244796 -1.5849355 -6.377697e-06 4.978564e-39
1.7340034 -1.584047 -5.6028366e-06 4.978564e-39
1.7435966 -1.5851599 -5.9008598e-06 4.978564e-39
1.7571236 -1.5851176 -5.1021575e-06 4.978564e-39
1.7662059 -1.5850878 -4.529953e-06 4.978564e-39
1.7758747 -1.5844854 -0.00077787554 4.978564e-39
1.785862 -1.5853169 -4.7683716e-06 4.978564e-39
1.7957916 -1.5844138 -6.7353249e-06 4.978564e-39
1.8057742 -1.5855492 -5.0067902e-06 4.978564e-39
1.8158337 -1.5846406 -6.8545341e-06 4.978564e-39
1.8259472 -1.5857842 -5.1259995e-06 4.978564e-39
1.8361378 -1.584869 -5.6028366e-06 4.978564e-39
1.846386 -1.5839469 -4.6491623e-06 4.978564e-39
1.8532606 -1.5854098 -5.6028366e-06 4.978564e-39
1.8629364 -1.5853809 -4.6730042e-06 4.978564e-39
1.8740611 -1.5856457 -4.0531158e-06 4.978564e-39
1.8845725 -1.584717 -5.4240227e-06 4.978564e-39
1.8951466 -1.5837827 -6.9141388e-06 4.978564e-39
1.905797 -1.5849533 -6.377697e-06 4.978564e-39
1.9165096 -1.5861313 -4.5895576e-06 4.978564e-39
1.9236979 -1.5855066 -6.3180923e-06 4.978564e-39
1.9345418 -1.5845604 -5.7816505e-06 4.978564e-39
1.9454514 -1.5836086 -5.364418e-06 4.978564e-39
1.9527684 -1.5851156 -4.8875809e-06 4.978564e-39
1.9630749 -1.5850875 -6.246567e-06 4.978564e-39
1.9749247 -1.585361 -6.6757202e-06 4.978564e-39
1.9861201 -1.5843993 -6.377697e-06 4.978564e-39
1.9973825 -1.5856055 -4.8875809e-06 4.978564e-39
2.0049398 -1.5849627 -5.6028366e-06 4.978564e-39
2.0125287 -1.5864997 -4.1723251e-06 4.978564e-39
2.0239887 -1.5855333 -6.0796738e-06 4.978564e-39
2.0355167 -1.5845582 -5.8412552e-06 4.978564e-39
2.0432487 -1.5839031 -4.529953e-06 4.978564e-39
2.0549262 -1.5851334 -7.5499215e-06 4.978564e-39
2.0666711 -1.5863686 -6.6757202e-06 4.978564e-39
2.074553 -1.5857142 -7.7486038e-06 4.978564e-39
2.0824676 -1.585053 -5.7220459e-06 4.978564e-39
2.0944204 -1.5840595 -6.5565109e-06 4.978564e-39
2.1064484 -1.5853071 -6.6757202e-06 4.978564e-39
2.1145167 -1.58464 -5.9604645e-06 4.978564e-39
2.1226256 -1.5862302 -6.4373016e-06 4.978564e-39
2.1348643 -1.585227 -5.7220459e-06 4.978564e-39
2.147187 -1.5842212 -8.1062317e-06 4.978564e-39
2.1554515 -1.5835438 -7.5101852e-06 4.978564e-39
2.1637537 -1.5851473 -5.364418e-06 4.978564e-39
2.2230396 -1.5873094 -5.2452087e-06 4.978564e-39
2.2316782 -1.5889575 -6.1988831e-06 4.978564e-39
2.2578475 -1.5822047 -6.3180923e-06 4.978564e-39
2.2666593 -1.5838567 -7.2717667e-06 4.978564e-39
2.3023443 -1.5857869 -7.5101852e-06 4.978564e-39
2.3113761 -1.587466 -5.9604645e-06 4.978564e-39
2.3204584 -1.5819857 -7.5101852e-06 4.978564e-39
1.0690675 -1.5712551 -3.8146973e-06 4.978564e-39
1.0752686 -1.5729797 -5.0067902e-06 4.978564e-39
1.0846317 -1.5755801 -5.0862632e-06 4.978564e-39
1.0944583 -1.5743757 -4.529953e-06 4.978564e-39
1.1039749 -1.5757394 -3.7550926e-06 4.978564e-39
1.1143677 -1.5751146 -6.1988831e-06 4.978564e-39
1.1248541 -1.5744803 -3.9935112e-06 4.978564e-39
1.1346124 -1.5758619 -4.6491623e-06 4.978564e-39
1.1448689 -1.5746347 -5.7617822e-06 4.978564e-39
1.1552033 -1.5750084 -2.5033951e-06 4.978564e-39
1.1656383 -1.5753896 -5.8545006e-06 4.978564e-39
1.1761537 -1.5741423 -4.8875809e-06 4.978564e-39
1.1843308 -1.5755091 -5.0919398e-06 4.978564e-39
1.195321 -1.5751529 -3.7352245e-06 4.978564e-39
1.2060959 -1.5738908 -4.0332475e-06 4.978564e-39
1.2147872 -1.5761833 -5.543232e-06 4.978564e-39
1.2235388 -1.5751697 -5.6028366e-06 4.978564e-39
1.2345672 -1.5738908 -4.2915344e-06 4.978564e-39
1.245688 -1.5759522 -3.9339066e-06 4.978564e-39
1.2546598 -1.5749265 -5.1458678e-06 4.978564e-39
1.2636954 -1.5738931 -6.0200691e-06 4.978564e-39
1.2750831 -1.5759771 -4.9273171e-06 4.978564e-39
1.2865671 -1.5746771 -4.6491623e-06 4.978564e-39
1.2953684 -1.5743667 -5.8889391e-06 4.978564e-39
1.3051649 -1.5760021 -4.8279762e-06 4.978564e-39
1.3145673 -1.5749531 -6.7353249e-06 4.978564e-39
1.3240347 -1.5738913 -4.4703484e-06 4.978564e-39
1.334053 -1.5755466 -5.1021575e-06 4.978564e-39
1.3431841 -1.5752306 -5.2054725e-06 4.978564e-39
1.3528641 -1.57416 -4.4107437e-06 4.978564e-39
1.3656833 -1.5758164 -5.2601099e-06 4.978564e-39
1.3773841 -1.5749779 -6.0200691e-06 4.978564e-39
1.3873185 -1.5738912 -4.3511391e-06 4.978564e-39
1.3978326 -1.5755869 -4.9114228e-06 4.978564e-39
1.4074169 -1.575263 -4.8279762e-06 4.978564e-39
1.4150282 -1.5744404 -3.4570694e-06 4.978564e-39
1.4221779 -1.5743879 -3.9577485e-06 4.978564e-39
1.432971 -1.576107 -5.1657357e-06 4.978564e-39
1.4436263 -1.5752428 -0.0010359462 4.978564e-39
1.4532433 -1.5746734 -4.5776369e-06 4.978564e-39
1.4648148 -1.5756299 -5.364418e-06 4.978564e-39
1.4748882 -1.5752993 -6.3180923e-06 4.978564e-39
1.4855691 -1.5741736 -4.529953e-06 4.978564e-39
1.4963338 -1.5748813 -2.9802322e-06 4.978564e-39
1.5071856 -1.5755974 -3.8146973e-06 4.978564e-39
1.5153793 -1.5747491 -5.8412552e-06 4.978564e-39
1.5230733 -1.5746948 -5.7935713e-06 4.978564e-39
1.5352461 -1.5756752 -5.7935713e-06 4.978564e-39
1.5455657 -1.5753901 -0.0010333133 4.978564e-39
1.557088 -1.5741822 -5.6028366e-06 4.978564e-39
1.5655779 -1.575201 -6.5565109e-06 4.978564e-39
1.574693 -1.5754081 -5.1021575e-06 4.978564e-39
1.5855936 -1.5750631 -5.9008598e-06 4.978564e-39
1.5942541 -1.5741863 -5.6028366e-06 4.978564e-39
1.6029733 -1.5752165 -5.3048134e-06 4.978564e-39
1.6152661 -1.5751345 -5.2690507e-06 4.978564e-39
1.6264788 -1.5747819 -5.0067902e-06 4.978564e-39
1.635389 -1.5738912 -4.1723251e-06 4.978564e-39
1.6443632 -1.5749377 -5.8710575e-06 4.978564e-39
1.6564091 -1.5756918 -6.2783561e-06 4.978564e-39
1.665507 -1.5747973 -7.6293945e-06 4.978564e-39
1.6740526 -1.5747387 -6.3180923e-06 4.978564e-39
1.6838752 -1.5749526 -6.3180923e-06 4.978564e-39
1.6937687 -1.5751684 -5.3405761e-06 4.978564e-39
1.7056011 -1.5748061 -4.9471855e-06 4.978564e-39
1.7150074 -1.5758805 -5.8412552e-06 4.978564e-39
1.7244787 -1.5749662 -5.6624413e-06 4.978564e-39
1.7340034 -1.5740467 -5.6028366e-06 4.978564e-39
1.7435966 -1.5751277 -5.9008598e-06 4.978564e-39
1.75583 -1.5747609 -5.1736833e-06 4.978564e-39
1.7662059 -1.5749803 -4.529953e-06 4.978564e-39
1.7766613 -1.5752037 -5.0783156e-06 4.978564e-39
1.7858628 -1.5751448 -5.364418e-06 4.978564e-39
1.7951266 -1.5750866 -5.5789947e-06 4.978564e-39
1.8057742 -1.57531 -5.0067902e-06 4.978564e-39
1.8158336 -1.574368 -6.8545341e-06 4.978564e-39
1.8259472 -1.575478 -5.1259995e-06 4.978564e-39
1.8361378 -1.5745287 -5.6028366e-06 4.978564e-39
1.846386 -1.5756475 -4.6491623e-06 4.978564e-39
1.8532605 -1.5750127 -5.6028366e-06 4.978564e-39
1.8643229 -1.5752407 -4.5061111e-06 4.978564e-39
1.8740593 -1.5751778 -2.7418137e-06 4.978564e-39
