# .PCD v0.7 - Point Cloud Data file format
VERSION 0.7
FIELDS x y z rgb
SIZE 4 4 4 4
TYPE F F F F
COUNT 1 1 1 1
WIDTH 942
HEIGHT 1
VIEWPOINT 0 0 0 1 0 0 0
POINTS 942
DATA ascii
0.51913363 -0.3243708 0.62263995 3.7818916e-39
0.52093321 -0.32831773 0.62562853 1.9372573e-39
0.51881731 -0.31541577 0.62405127 3.3205687e-39
0.51892936 -0.30451113 0.6259926 2.9521519e-39
0.51956248 -0.29667658 0.62718022 2.8599577e-39
0.52048177 -0.29414925 0.62427634 3.2287346e-39
0.52117443 -0.2853635 0.62582695 3.0443461e-39
0.52250093 -0.27540219 0.62596089 3.3205701e-39
0.52406824 -0.26471782 0.62531471 3.5971542e-39
0.5254041 -0.25447869 0.62557882 4.6112935e-39
0.52697033 -0.24507684 0.6254003 4.7034863e-39
0.52819586 -0.23505397 0.6256007 6.5470178e-39
0.52917016 -0.22635177 0.62610519 6.8236033e-39
0.53065038 -0.22332405 0.62213272 4.4268924e-39
0.52977228 -0.21933372 0.62809741 9.5887281e-39
0.53075355 -0.21486306 0.6265887 8.2983592e-39
0.53188562 -0.20447755 0.62638241 6.1782366e-39
0.53332812 -0.19461848 0.62541056 3.3209148e-39
0.53525609 -0.18491685 0.62498027 2.8599339e-39
0.53802264 -0.17489599 0.62525332 4.4153471e-39
0.53984547 -0.1694928 0.62560922 5.4240732e-39
0.54184389 -0.16445291 0.62501943 5.977247e-39
0.5560537 -0.16113719 0.6227476 1.9372601e-39
0.56352687 -0.16302219 0.62317699 2.2142169e-39
0.57145238 -0.16494112 0.62144226 2.0298187e-39
0.5453229 -0.15895027 0.62290961 4.6973346e-39
0.52962971 -0.080780417 0.62737489 1.1708483e-38
0.53106016 -0.082415521 0.62430936 1.1432255e-38
0.51896179 -0.070427798 0.6249131 9.0351717e-39
0.52428281 -0.07564421 0.6254366 1.0602495e-38
0.50881696 -0.060098268 0.62474602 9.0351717e-39
0.51390702 -0.065203726 0.62547654 8.9429761e-39
0.50459415 -0.054757953 0.6257742 1.0694693e-38
0.49792272 -0.042831533 0.62657309 1.1616647e-38
0.50094503 -0.047950972 0.62460178 1.1708483e-38
0.74831516 -0.046221927 0.62030309 1.0879084e-38
0.49763429 -0.036622457 0.62629956 1.1616648e-38
0.50206113 -0.032529119 0.62381583 1.1616645e-38
0.49546272 -0.025160281 0.62837362 1.0786889e-38
0.50713319 -0.027089791 0.62550271 1.1616285e-38
0.51258552 -0.022128105 0.62493581 1.1616286e-38
0.51793814 -0.017545072 0.62503898 1.1616285e-38
0.52323329 -0.013008433 0.62473553 1.0230463e-38
0.52804679 -0.0087570008 0.62548977 7.2747793e-39
0.53483617 -0.0036193477 0.62498498 7.4595307e-39
0.53937727 0.0010456449 0.62628967 6.5354066e-39
0.54455215 0.0054930993 0.62512124 7.3673351e-39
0.55486298 0.0150463 0.62514251 6.8130753e-39
0.56006765 0.0195069 0.62498903 7.0900251e-39
0.56595677 0.024786651 0.62569869 6.9052709e-39
0.57102901 0.029546067 0.62479722 1.1062025e-38
0.57599127 0.034102265 0.6257835 1.1523366e-38
0.58263308 0.038927857 0.62447149 1.1338253e-38
0.5882135 0.042110056 0.62492806 1.1243897e-38
0.59222865 0.044173837 0.62427819 1.1336814e-38
0.45438862 0.19796038 0.62859738 3.8646242e-39
0.4474138 0.20646866 0.62667662 4.326687e-39
0.45140532 0.20158891 0.62651008 4.141574e-39
0.43863219 0.21849771 0.62624705 4.5110782e-39
0.4423666 0.21335314 0.62644291 4.4192441e-39
0.43431664 0.22479451 0.62709057 4.1419342e-39
0.4290601 0.23430997 0.62876719 3.77243e-39
0.43091992 0.2307113 0.62587935 4.2337697e-39
0.52362287 -0.33064544 0.63060564 1.2918697e-39
0.51729333 -0.32303813 0.63735521 2.8596003e-39
0.52232593 -0.32983369 0.63805652 2.5833624e-39
0.51657438 -0.31465012 0.63627082 2.8599605e-39
0.51874614 -0.30508 0.63482565 2.8599577e-39
0.52025771 -0.30048674 0.63832831 2.8599577e-39
0.51982099 -0.29749352 0.63064677 2.8599577e-39
0.52115148 -0.29466417 0.6353718 2.8599577e-39
0.5225094 -0.28497702 0.63493168 2.8599577e-39
0.52390337 -0.27475131 0.63498062 3.0443461e-39
0.52507657 -0.26517999 0.63485956 7.28458e-39
0.52654952 -0.25512359 0.63500559 1.1524815e-38
0.52792537 -0.24472567 0.63532132 1.1616651e-38
0.52869302 -0.23528709 0.63501751 1.1708845e-38
0.52953392 -0.22546037 0.63423443 1.1708845e-38
0.53007197 -0.22079462 0.63645458 1.1801041e-38
0.52999431 -0.21911669 0.63241744 1.1708845e-38
0.5307411 -0.21469425 0.63571429 1.1708845e-38
0.5320009 -0.20511766 0.63493723 1.1708845e-38
0.5336324 -0.19507398 0.63505489 7.6529996e-39
0.53596431 -0.18506199 0.63508713 2.8599577e-39
0.53845143 -0.17545538 0.63497764 3.0425441e-39
0.54030544 -0.17061542 0.63697511 2.9514302e-39
0.54228336 -0.16486187 0.6350944 5.1467885e-39
0.54440963 -0.15956907 0.6353119 6.2448278e-39
0.52925014 -0.080484882 0.6307199 1.530411e-38
0.53286803 -0.081628636 0.631827 1.5304112e-38
0.51947969 -0.071421169 0.63393253 9.0351717e-39
0.52496946 -0.076077223 0.63355339 1.2261657e-38
0.50970978 -0.061021741 0.63600433 8.9429761e-39
0.51424062 -0.065879993 0.6349498 8.9429761e-39
0.50528216 -0.05514504 0.63505077 1.0510302e-38
0.51158643 -0.059840083 0.63781583 1.0879083e-38
0.52233362 -0.059742354 0.63915706 1.0879084e-38
0.4985784 -0.043501653 0.63464814 1.1430812e-38
0.50108987 -0.048221968 0.63516533 1.1616285e-38
0.49740565 -0.03687375 0.63546938 1.1150269e-38
0.50207734 -0.031721916 0.63504964 1.1149189e-38
0.50696242 -0.027283804 0.63498509 1.1149187e-38
0.51293606 -0.022054372 0.63514584 1.0318346e-38
0.51748109 -0.018105427 0.63442284 1.0411622e-38
0.52310807 -0.013230501 0.63414288 9.2098254e-39
0.52853847 -0.0085565001 0.63452524 6.3456175e-39
0.53407514 -0.0038412409 0.63483232 6.6204066e-39
0.53865278 0.00011766423 0.63518596 6.8033601e-39
0.54481149 0.0057121785 0.63475573 6.7118833e-39
0.55473006 0.014611376 0.63468617 6.8033601e-39
0.56034255 0.019525362 0.63520765 7.0777904e-39
0.56557971 0.024198189 0.63511312 7.262183e-39
0.57127416 0.029495467 0.63412678 9.848362e-39
0.57614475 0.033705216 0.63448054 1.0309343e-38
0.58237994 0.038554829 0.63593221 9.936599e-39
0.58688474 0.04211881 0.63583255 9.7500469e-39
0.59190351 0.04567764 0.6356889 9.5642165e-39
0.45527765 0.19719224 0.63514107 5.4377401e-39
0.46241191 0.19447111 0.63505995 5.7114291e-39
0.44715551 0.20573413 0.63496548 4.8842034e-39
0.4507722 0.20083258 0.63505733 5.0693191e-39
0.43865842 0.21832728 0.63430363 4.6994506e-39
0.44229171 0.21327266 0.63491434 4.884925e-39
0.43396276 0.22492312 0.635423 5.0696792e-39
0.42852563 0.23554324 0.6355527 5.1629595e-39
0.43045121 0.23060389 0.63519597 4.9774822e-39
0.42830944 0.2426192 0.63580668 5.3473493e-39
0.43144691 0.24767812 0.63774502 5.6232146e-39
0.51818424 -0.32220963 0.64410412 3.0443587e-39
0.52050954 -0.32701379 0.64253896 2.5830051e-39
0.51771933 -0.31409734 0.64533257 2.8599605e-39
0.52564085 -0.31627688 0.64356196 7.0076302e-39
0.51920944 -0.30709833 0.6439777 2.8599577e-39
0.52074575 -0.30287996 0.64599794 2.8599577e-39
0.52259099 -0.29488009 0.64507622 2.8599577e-39
0.52418792 -0.28497505 0.64499444 2.8599577e-39
0.52518606 -0.27496886 0.64496058 4.795326e-39
0.52643859 -0.26499495 0.64488268 1.1616651e-38
0.52782422 -0.25517794 0.64511424 1.1708845e-38
0.52915215 -0.24527551 0.64533156 1.1708845e-38
0.52963799 -0.23572204 0.64267528 1.1801041e-38
0.5304094 -0.23436193 0.64710933 1.1708845e-38
0.52990645 -0.22715501 0.64081842 1.1801041e-38
0.53076899 -0.22482891 0.64550924 1.1708845e-38
0.53145224 -0.21516678 0.64537823 1.1801041e-38
0.53264874 -0.20489857 0.64478558 1.1801041e-38
0.53457963 -0.19504158 0.64475787 1.1155678e-38
0.53670019 -0.18501428 0.64479566 3.1365418e-39
0.53888035 -0.17694809 0.64478797 2.8599577e-39
0.54124463 -0.17219673 0.64603907 2.8599577e-39
0.53545016 -0.16583234 0.64741397 1.0879084e-38
0.54376715 -0.16486581 0.64464611 2.9514316e-39
0.55199629 -0.16132388 0.64254975 3.5053467e-39
0.54578817 -0.15952468 0.64296043 4.4150024e-39
0.52963984 -0.080749139 0.64800996 9.0013192e-39
0.5331493 -0.083274305 0.64593655 9.2811473e-39
0.5184617 -0.070534103 0.64506584 8.8270116e-39
0.52399319 -0.075476363 0.64366055 9.2890702e-39
0.50973827 -0.060487747 0.64423591 8.734816e-39
0.5140543 -0.065492272 0.64470267 8.7333755e-39
0.50573391 -0.054997057 0.644122 9.0070813e-39
0.4987669 -0.04271502 0.64532059 9.0989168e-39
0.50162196 -0.047185861 0.64252543 9.2833081e-39
0.4981809 -0.03729362 0.64538831 9.1889516e-39
0.50255412 -0.032461777 0.64582419 9.000959e-39
0.5073446 -0.027466575 0.64537901 7.8985729e-39
0.51231378 -0.02281668 0.64589876 6.6125159e-39
0.52470255 -0.021385573 0.64034307 7.4401157e-39
0.51741153 -0.018306278 0.6447835 6.4295651e-39
0.52351487 -0.012958447 0.64455676 6.7047101e-39
0.52874947 -0.0083103124 0.64520192 8.4488656e-39
0.53380847 -0.0038581623 0.64519632 8.6325366e-39
0.53849763 0.00028455257 0.64498669 8.7243721e-39
0.54494786 0.0061293319 0.64499909 8.6325366e-39
0.55481797 0.014860892 0.64524943 8.6332555e-39
0.5600484 0.019539395 0.64243519 8.7243721e-39
0.56580746 0.024746539 0.64507174 8.7243721e-39
0.57105207 0.029431814 0.64529318 8.7247309e-39
0.57575053 0.033387996 0.64438432 8.7250924e-39
0.58151215 0.038641095 0.64641923 8.7243721e-39
0.58686197 0.042894382 0.64623815 8.7247323e-39
0.59122699 0.046323292 0.64602214 8.8176482e-39
0.45580924 0.19763951 0.64303333 6.5509582e-39
0.46147925 0.19477117 0.64476424 7.4721886e-39
0.44737002 0.20593582 0.64462793 6.1821757e-39
0.45105562 0.20104384 0.64631176 6.2743727e-39
0.4388921 0.2182627 0.64485729 6.1821757e-39
0.44247064 0.21321063 0.64539838 6.1821757e-39
0.43414539 0.22487475 0.64509183 6.1821757e-39
0.44675496 0.22036484 0.64770418 6.7349865e-39
0.42851502 0.23538654 0.64491266 6.1821757e-39
0.43025666 0.23069698 0.64697647 6.1821757e-39
0.42890087 0.2430727 0.64384556 6.0896171e-39
0.43124226 0.24723653 0.6450038 6.6391714e-39
0.43465713 0.25124758 0.64560616 6.6384455e-39
0.52293599 -0.33296603 0.65232855 8.5742202e-39
0.51831388 -0.32378209 0.65268004 3.2287528e-39
0.52091819 -0.32448786 0.65668768 3.136553e-39
0.51881832 -0.31611404 0.65135115 3.5975437e-39
0.52127314 -0.31474069 0.65512866 3.2287528e-39
0.51945078 -0.30983973 0.65043616 2.8599577e-39
0.5217306 -0.30519888 0.65427965 3.136553e-39
0.52377117 -0.29506665 0.65501195 2.8599577e-39
0.52530831 -0.28473726 0.65516287 2.8599577e-39
0.52631432 -0.2752609 0.65494394 7.8373894e-39
0.52753001 -0.26514703 0.65520942 9.9556833e-39
0.52882862 -0.25484136 0.65474021 9.5876224e-39
0.53002602 -0.25041348 0.65955245 8.0181331e-39
0.52962232 -0.2476062 0.65328187 9.5872623e-39
0.5303722 -0.24392448 0.65609759 8.4801931e-39
0.53128892 -0.23490286 0.65493178 8.8486155e-39
0.53229725 -0.22490685 0.65503281 9.1252024e-39
0.5330478 -0.2149836 0.65556854 9.5865392e-39
0.53350657 -0.20530067 0.6546647 1.1339342e-38
0.53494126 -0.19476968 0.65525252 8.8511714e-39
0.53707701 -0.18485628 0.65496075 2.8599577e-39
0.53928655 -0.17789502 0.6551134 2.8599577e-39
0.54123008 -0.17341866 0.65528816 2.8599577e-39
0.54416311 -0.16462035 0.65483135 2.8599577e-39
0.54901838 -0.1589974 0.65602708 2.8599577e-39
0.55233425 -0.15704258 0.65820283 2.8599577e-39
0.53346634 -0.082386278 0.65161437 9.18463e-39
0.51911861 -0.071438268 0.65495336 8.7243721e-39
0.52348411 -0.075606495 0.65418881 8.8162076e-39
0.50994146 -0.061192568 0.65751088 8.7243721e-39
0.51402134 -0.065801702 0.65530491 8.7243721e-39
0.50490302 -0.055328786 0.65522623 8.7243721e-39
0.49835092 -0.044396453 0.65525192 9.6625359e-39
0.49922603 -0.039206859 0.65041137 9.2768256e-39
0.50299758 -0.034805384 0.65416092 8.0815237e-39
0.50807631 -0.02741974 0.65562743 6.4284847e-39
0.51261455 -0.022507569 0.65495753 6.2448137e-39
0.5180794 -0.018036829 0.65403348 6.8876622e-39
0.52391821 -0.012930904 0.65449059 7.8060172e-39
0.52872247 -0.008328639 0.65559304 8.7243721e-39
0.53382003 -0.0034964953 0.65460086 8.7243721e-39
0.53893095 0.0012458605 0.65516043 8.7243721e-39
0.54476273 0.0064833155 0.65531772 8.7243721e-39
0.55056667 0.0099312281 0.65118051 1.0786889e-38
0.54812378 0.010032238 0.65076029 8.7243721e-39
0.55516064 0.015708575 0.6548723 8.7243721e-39
0.56475413 0.024164096 0.65511233 8.7243721e-39
0.57057643 0.029373191 0.65528673 8.7243721e-39
0.5598709 0.033332836 0.65577203 7.0831868e-39
0.57593846 0.034175992 0.65489548 8.7243721e-39
0.58142138 0.039034151 0.65453923 8.7243721e-39
0.5864011 0.043392256 0.65493107 8.7243721e-39
0.45497999 0.19694352 0.6554926 6.8268206e-39
0.46496212 0.19452253 0.65484023 7.5604046e-39
0.47024941 0.19517268 0.65979099 6.6380854e-39
0.44747669 0.20639844 0.65479022 6.2743699e-39
0.4509109 0.20115907 0.65479392 6.9190163e-39
0.43910599 0.21841314 0.65488011 6.1821757e-39
0.44256738 0.21362142 0.65501434 6.1821757e-39
0.43444312 0.22479522 0.65466535 6.5505953e-39
0.42873722 0.23649399 0.65333819 6.2740112e-39
0.43079278 0.23246481 0.65569997 6.826822e-39
0.42843977 0.24290609 0.65529066 6.4580381e-39
0.43179268 0.24823849 0.65620631 5.9019622e-39
0.43566576 0.25159934 0.65368146 6.5462499e-39
0.52261651 -0.33046162 0.66464925 3.1365516e-39
0.51962197 -0.32420167 0.66606593 2.3986068e-39
0.52244294 -0.32960314 0.66753244 3.1365516e-39
0.51981348 -0.31617734 0.66485977 2.8599577e-39
0.5201326 -0.31335807 0.6674903 2.8599577e-39
0.51989841 -0.30897579 0.66319567 2.8599577e-39
0.52134693 -0.30426911 0.66551965 2.8599577e-39
0.51704723 -0.29635549 0.66195643 9.4936233e-39
0.52411902 -0.29517686 0.6652621 2.8599577e-39
0.52650154 -0.28533024 0.66500443 4.5191007e-39
0.52766263 -0.27475366 0.66467577 1.0971286e-38
0.52882195 -0.26522422 0.66515213 7.1865648e-39
0.5296014 -0.25716582 0.66332418 6.8170634e-39
0.53045863 -0.2531994 0.66641814 5.892219e-39
0.53141606 -0.24469618 0.66492122 5.9844146e-39
0.53257412 -0.23510391 0.66509879 5.9844146e-39
0.53369379 -0.22500521 0.66496414 6.2624435e-39
0.53472799 -0.21499775 0.66538173 6.9092576e-39
0.53525931 -0.20503949 0.66528094 8.5716642e-39
0.53603715 -0.1952505 0.66505474 1.0879453e-38
0.53811198 -0.18490463 0.66425276 3.0443461e-39
0.53957611 -0.17873628 0.66532344 2.8599577e-39
0.54118747 -0.1736678 0.66521639 2.8599577e-39
0.54463071 -0.16494763 0.66537344 2.8599577e-39
0.54904985 -0.15857682 0.66622388 2.8599577e-39
0.55395442 -0.15706798 0.66363627 2.9521603e-39
0.56126601 -0.1579908 0.66481882 3.1365544e-39
0.52893543 -0.081289209 0.66504443 8.7243721e-39
0.53139043 -0.083688505 0.66559762 8.7247323e-39
0.51899815 -0.071017593 0.66579133 8.7243721e-39
0.52375036 -0.07598608 0.66445124 8.7243721e-39
0.50958067 -0.060689498 0.66470528 8.7243721e-39
0.5141263 -0.065729909 0.665187 8.7243721e-39
0.50430942 -0.054725695 0.6648261 8.9998786e-39
0.51751256 -0.059184201 0.66319084 9.0985567e-39
0.49812573 -0.045062993 0.66424203 9.8281988e-39
0.50049329 -0.046581388 0.66778249 1.0101905e-38
0.4983415 -0.037374333 0.6664148 9.0920743e-39
0.50217515 -0.031496637 0.66699255 6.1529782e-39
0.50661898 -0.027202524 0.66611052 6.7958267e-39
0.51258641 -0.022174714 0.66435266 6.4284847e-39
0.5177055 -0.01767849 0.6649816 7.4386752e-39
0.52330798 -0.012607257 0.66537333 8.7243721e-39
0.52870095 -0.0077345455 0.66480511 8.7243721e-39
0.53371167 -0.0032347678 0.66502649 8.7243721e-39
0.53874785 0.0012992391 0.66526693 8.7243721e-39
0.54456884 0.0065571419 0.66443527 8.7243721e-39
0.54845667 0.010032224 0.66603589 8.7243721e-39
0.55488044 0.015585995 0.6653623 8.7243721e-39
0.56521833 0.024704842 0.66446882 8.7243721e-39
0.57024521 0.029317329 0.66494 8.7243721e-39
0.57555467 0.034158431 0.66540968 8.7243721e-39
0.58147335 0.03921283 0.66631317 8.9080431e-39
0.58655566 0.042964265 0.66515362 9.0917141e-39
0.59288162 0.045552626 0.66771817 9.5508916e-39
0.45600867 0.19671713 0.6649791 7.0108518e-39
0.46204671 0.19406115 0.66861922 8.2043237e-39
0.44745958 0.20621155 0.66467637 7.6558582e-39
0.45101273 0.20122786 0.66513854 6.9190163e-39
0.43899027 0.21852557 0.6648373 3.0489928e-39
0.44261059 0.21343797 0.66519231 3.2337428e-39
0.43423253 0.22488873 0.66519731 5.7212046e-39
0.42884329 0.2363116 0.66569692 7.1034061e-39
0.43044728 0.23094554 0.664891 8.1164734e-39
0.4291161 0.24240662 0.66517931 6.1821743e-39
0.43167543 0.24737157 0.66384268 5.5335469e-39
0.43679491 0.25267416 0.66487265 5.9934348e-39
0.51990259 -0.32428399 0.67162216 2.4911654e-39
0.52061516 -0.32388464 0.67618489 2.5830037e-39
0.52033442 -0.31505144 0.67450708 2.8599577e-39
0.52178538 -0.30498451 0.67477965 2.8599577e-39
0.52478361 -0.29487133 0.67491305 2.8599577e-39
0.52732587 -0.28515211 0.6749016 1.0049702e-38
0.52862918 -0.27524278 0.67512 1.1708845e-38
0.52952701 -0.26615968 0.67340165 7.9234096e-39
0.53036988 -0.26280874 0.67688519 7.4620699e-39
0.53115022 -0.25511983 0.67498547 5.983693e-39
0.53254163 -0.24538627 0.67489517 5.983693e-39
0.53406507 -0.23497261 0.67491585 5.8914988e-39
0.53534269 -0.22479096 0.67504078 6.0762501e-39
0.53629911 -0.21520589 0.67480892 5.8918575e-39
0.53686595 -0.2051219 0.6748994 7.7390169e-39
0.5375331 -0.19482325 0.67540824 1.1616651e-38
0.53838527 -0.18526241 0.67451751 3.8740984e-39
0.54030871 -0.18173341 0.67866343 2.8599577e-39
0.53964889 -0.17911786 0.67134392 2.8599577e-39
0.54236919 -0.17501198 0.67543739 2.8599577e-39
0.54664195 -0.16511776 0.67512774 2.8599577e-39
0.54946923 -0.15878062 0.67510933 2.8599577e-39
0.55045938 -0.15676102 0.67586911 2.8599577e-39
0.52892894 -0.081225924 0.67378759 9.3769428e-39
0.53226411 -0.083829187 0.67485386 9.751849e-39
0.51908612 -0.071223527 0.67354745 8.8223299e-39
0.52400595 -0.076416835 0.67546898 9.6600135e-39
0.50876951 -0.060116295 0.67247307 8.7243721e-39
0.5138219 -0.065600798 0.67516458 8.8277319e-39
0.5042699 -0.054858807 0.67512304 9.4756223e-39
0.49694452 -0.044495963 0.67685646 9.8573682e-39
0.49858025 -0.038010675 0.67409116 5.7888775e-39
0.50264472 -0.033300329 0.67414391 6.7039912e-39
0.5143621 -0.030737136 0.67293775 9.1914726e-39
0.50774831 -0.027013114 0.67393267 6.2448137e-39
0.51274985 -0.021817224 0.67464566 7.2550042e-39
0.5176509 -0.017342281 0.67555827 8.6325366e-39
0.52277368 -0.012736407 0.67466003 8.7243721e-39
0.52767462 -0.0083671724 0.67464679 8.7243721e-39
0.53359389 -0.0030216393 0.67564374 8.7243721e-39
0.5388431 0.0016714185 0.67446977 8.7243721e-39
0.54388684 0.0062143081 0.67474842 8.7243721e-39
0.54880977 0.010652586 0.67640609 8.7243721e-39
0.5548864 0.015865456 0.67469847 8.7243721e-39
0.56270003 0.014259318 0.67123044 1.4013736e-38
0.56471151 0.02441429 0.67465913 8.7243721e-39
0.57017577 0.029258452 0.6754145 8.7243721e-39
0.57520264 0.033983506 0.67523503 8.7243721e-39
0.58061916 0.039069008 0.67644042 8.7243721e-39
0.58326906 0.041522756 0.67828643 8.7243721e-39
0.45586684 0.19691233 0.6751864 7.5636598e-39
0.464104 0.19410092 0.67352217 7.8377131e-39
0.44751552 0.2063828 0.67519337 6.2740112e-39
0.4510853 0.20141792 0.67502046 6.3665656e-39
0.43896428 0.21869384 0.6751352 2.5826197e-39
0.44259742 0.21377693 0.67478442 3.042872e-39
0.43435428 0.22513638 0.67500913 4.3364835e-39
0.42970413 0.2356409 0.67293441 6.1821757e-39
0.43052229 0.23339961 0.67563385 6.1821757e-39
0.42942163 0.24307418 0.67513728 6.1818142e-39
0.43202457 0.2480913 0.67631608 6.1789135e-39
0.43625146 0.25203723 0.67512673 6.4540542e-39
0.52452767 -0.33061883 0.68540585 1.4759036e-39
0.52285773 -0.32470009 0.68423897 2.3064112e-39
0.52095103 -0.31501338 0.68425483 2.8599577e-39
0.51643336 -0.30296615 0.68724757 6.3626349e-39
0.52190244 -0.30512756 0.68519115 2.8599577e-39
0.52497685 -0.29513595 0.68494511 2.8599577e-39
0.52795851 -0.28504902 0.68502855 1.0787259e-38
0.5294162 -0.27567065 0.68484038 1.1801041e-38
0.53009826 -0.27102363 0.68615764 1.1801041e-38
0.52998602 -0.26920938 0.68054694 1.1801041e-38
0.53083885 -0.26506835 0.68548715 1.1708845e-38
0.53210568 -0.25484368 0.68479109 1.0232269e-38
0.53359216 -0.24478564 0.68507689 9.1241163e-39
0.53505093 -0.2352521 0.68494469 8.8468092e-39
0.5365802 -0.22532167 0.68496627 9.031562e-39
0.53785449 -0.21463303 0.68491834 1.0047157e-38
0.53832984 -0.20500201 0.68463212 1.1524094e-38
0.538872 -0.19537263 0.68499595 1.1063841e-38
0.53935796 -0.18687573 0.68410039 4.5191007e-39
0.54045588 -0.18273756 0.6866312 2.8599577e-39
0.54231989 -0.17530361 0.68595475 2.8599577e-39
0.5454663 -0.16485642 0.68658864 2.9521519e-39
0.56418604 -0.16152994 0.68500721 3.5057082e-39
0.54870564 -0.15858322 0.68494743 2.8599577e-39
0.55393732 -0.15657297 0.68620604 2.9521575e-39
0.53151965 -0.092346802 0.68973452 1.1524452e-38
0.52877468 -0.081011266 0.68628275 1.2722633e-38
0.53314477 -0.083746821 0.68653148 1.3921539e-38
0.51827687 -0.071278051 0.68527484 9.0348116e-39
0.52355635 -0.076223269 0.68476397 1.0970918e-38
0.50899208 -0.060812034 0.68512648 8.9429761e-39
0.51320755 -0.065660298 0.68564719 8.942616e-39
0.50443399 -0.055185497 0.68514901 1.0786887e-38
0.49774268 -0.044276934 0.68376994 1.1523731e-38
0.50077611 -0.048621386 0.68564421 1.1616286e-38
0.49785215 -0.037036616 0.68708861 8.4776735e-39
0.5023182 -0.0323027 0.68575388 8.6491028e-39
0.50754762 -0.026555011 0.68523961 8.0908871e-39
0.51239717 -0.021761212 0.68446589 9.0985567e-39
0.51700664 -0.017579921 0.68589026 9.5634949e-39
0.5225597 -0.012618027 0.68425316 9.1914726e-39
0.52749795 -0.0081074322 0.68520063 9.4713007e-39
0.53339428 -0.0028333731 0.68492222 6.5261188e-39
0.53851503 0.0017255561 0.68446636 6.250255e-39
0.54362321 0.0063494504 0.68537134 5.6088555e-39
0.54881364 0.010991425 0.68494987 5.7003308e-39
0.55507755 0.016468661 0.68448079 6.3446114e-39
0.56512487 0.025020475 0.68543088 1.0216789e-38
0.57001185 0.029206324 0.68457866 9.8433244e-39
0.57562059 0.034337241 0.68477893 1.0123871e-38
0.58053714 0.03895035 0.68546385 1.0403339e-38
0.58558607 0.04312709 0.6853289 1.0496615e-38
0.45630994 0.19749339 0.68468589 6.9193778e-39
0.462652 0.19420084 0.68552411 8.1161077e-39
0.44738376 0.20675546 0.68484128 7.1948829e-39
0.45121706 0.20148115 0.68510777 7.4714684e-39
0.46211994 0.20090626 0.68141758 6.2740112e-39
0.42770749 0.2177659 0.68036371 4.6025508e-39
0.439013 0.21853507 0.68519151 2.7659292e-39
0.44250718 0.21369444 0.68491966 3.3183743e-39
0.43480435 0.22483271 0.68477458 5.1647952e-39
0.42868665 0.23647258 0.68544054 8.3005032e-39
0.43102962 0.23163791 0.68503708 8.2086691e-39
0.42881757 0.24159974 0.68372428 6.3651166e-39
0.4320761 0.24635547 0.68506855 6.0856318e-39
0.43513879 0.25082791 0.68620402 6.3622187e-39
0.4412449 0.25473928 0.68628228 6.6388042e-39
0.52201265 -0.32397974 0.69549119 2.7677606e-39
0.52132094 -0.31441575 0.69532138 2.8599577e-39
0.52321059 -0.30483124 0.69472736 2.8599577e-39
0.52588999 -0.29482996 0.69482899 3.1361816e-39
0.52858001 -0.28495476 0.69491273 9.4043396e-39
0.5296942 -0.27764148 0.69272828 1.1801041e-38
0.53067046 -0.27380991 0.69575852 1.1801041e-38
0.53186387 -0.26476249 0.69506592 1.1801041e-38
0.5331741 -0.25520399 0.69494945 1.1801041e-38
0.53460109 -0.24508806 0.69501919 1.1801041e-38
0.53603745 -0.23469737 0.69501173 1.1801041e-38
0.53735822 -0.22485973 0.69503784 1.1801041e-38
0.53863847 -0.21538216 0.69519001 1.1708845e-38
0.53951252 -0.20590004 0.69342089 1.1708845e-38
0.5403372 -0.20306931 0.69746631 8.3905562e-39
0.53978586 -0.19621454 0.69104838 1.0049701e-38
0.54066783 -0.19474424 0.69580507 5.7172725e-39
0.54137057 -0.18491669 0.69503081 2.8599577e-39
0.54372174 -0.17488086 0.69438976 2.8599577e-39
0.54734397 -0.16487695 0.69378573 2.8599577e-39
0.54952198 -0.15942128 0.69456035 2.8599577e-39
0.55161327 -0.15783547 0.69606256 2.8599577e-39
0.56338876 -0.1579439 0.69036549 3.0443545e-39
0.5358777 -0.082628466 0.6943379 1.604204e-38
0.54133087 -0.082355998 0.69845086 1.9729498e-38
0.51870692 -0.07135503 0.69428462 9.0351717e-39
0.5239473 -0.07589516 0.69521695 1.198543e-38
0.50911021 -0.060228053 0.69389278 8.9429761e-39
0.51417476 -0.065393083 0.69608647 9.5883455e-39
0.55777854 -0.066484988 0.69990689 1.9821696e-38
0.50468189 -0.054832779 0.69527692 1.0694693e-38
0.51047611 -0.059943482 0.69956893 1.0325911e-38
0.49786103 -0.04421759 0.69582999 1.1432977e-38
0.50011021 -0.041350238 0.69888842 1.1341144e-38
0.49882779 -0.038560562 0.69366956 9.0344417e-39
0.50262392 -0.034666248 0.69566005 1.1616285e-38
0.5075047 -0.027529657 0.69522715 1.2446047e-38
0.51219451 -0.022913689 0.69581306 1.2445688e-38
0.51749253 -0.017732522 0.69499516 1.2076903e-38
0.52323389 -0.012748773 0.69585311 1.21691e-38
0.52790493 -0.0083450992 0.69528455 1.2262378e-38
0.5337494 -0.0033908039 0.6958431 4.795689e-39
0.53869498 0.0016888462 0.69436598 2.8599577e-39
0.54457396 0.005866169 0.69640249 2.8599577e-39
0.54882014 0.010730711 0.69343245 2.8599577e-39
0.55521142 0.015221224 0.69580829 4.5191077e-39
0.56098735 0.019248992 0.69837952 1.0510303e-38
0.56555343 0.024085032 0.69536901 1.0694693e-38
0.57114446 0.028351896 0.69699991 1.0233714e-38
0.57601225 0.033407886 0.69448441 1.0418103e-38
0.58238393 0.03796728 0.69589382 9.8649324e-39
0.58702552 0.042057827 0.69394207 1.0418105e-38
0.59137541 0.044507604 0.69587505 9.5883455e-39
0.45649281 0.19780377 0.69533694 6.1814526e-39
0.46343735 0.19438356 0.69500381 8.1157434e-39
0.47007111 0.19671522 0.69943941 8.4812749e-39
0.44769293 0.20662449 0.69461024 6.0899801e-39
0.45133954 0.20177954 0.69547397 6.0899787e-39
0.43899727 0.21904373 0.69442928 4.9829235e-39
0.44264188 0.21390995 0.6954295 5.4442561e-39
0.43489152 0.22509706 0.69527054 5.8130358e-39
0.42921135 0.23660959 0.69458145 6.1814526e-39
0.43070289 0.23189069 0.69628978 6.0896185e-39
0.42948836 0.24116984 0.69431984 6.6417035e-39
0.43212351 0.24575031 0.69580305 5.9026909e-39
0.43732747 0.25167289 0.69655502 5.7164878e-39
0.44216853 0.25447032 0.69909924 5.4384562e-39
0.52661973 -0.33022261 0.70771796 1.3837052e-39
0.52301919 -0.32458758 0.70550704 2.3986054e-39
0.52275932 -0.31517276 0.70539856 2.8603164e-39
0.52393478 -0.30506393 0.70493144 2.8599577e-39
0.52648497 -0.29506677 0.70498228 2.8603164e-39
0.5288673 -0.28597409 0.70466626 7.6537185e-39
0.53030699 -0.28123513 0.70658249 1.0605384e-38
0.53153884 -0.2751807 0.70500767 1.106528e-38
0.53333282 -0.26518029 0.70483559 1.1157115e-38
0.53463149 -0.25510201 0.70479578 1.1341146e-38
0.53601402 -0.24494377 0.70517486 1.1341146e-38
0.53708476 -0.23521852 0.70479345 1.1617011e-38
0.53828532 -0.22510527 0.70501345 1.1617009e-38
0.53935516 -0.21572056 0.70434695 7.4686111e-39
0.54025793 -0.21189806 0.70818806 2.8603164e-39
0.53989762 -0.20937304 0.70113498 6.6388589e-39
0.54084879 -0.20479093 0.70504403 3.1365404e-39
0.54202068 -0.19496901 0.70500243 2.8599577e-39
0.54357988 -0.18480729 0.70514578 2.8599577e-39
0.54558432 -0.17490965 0.70503163 2.8599577e-39
0.54768836 -0.16514887 0.70485622 2.8599577e-39
0.55039972 -0.16094267 0.70730889 2.8599577e-39
0.55489665 -0.15749356 0.70555586 2.8599577e-39
0.56032938 -0.15484929 0.70906502 2.8599577e-39
0.53492206 -0.080988027 0.70180249 1.9084495e-38
0.52620643 -0.074344873 0.70269787 1.5673257e-38
0.53444964 -0.074911714 0.70568401 1.6779242e-38
0.54298091 -0.072911888 0.7060349 1.8807544e-38
0.55068898 -0.072066866 0.70139319 1.8991934e-38
0.51752496 -0.063585386 0.70223796 1.1801041e-38
0.52453023 -0.065345138 0.70528275 1.4658744e-38
0.53514785 -0.064901933 0.70662367 1.9176327e-38
0.54414183 -0.064388089 0.70693409 1.9268525e-38
0.55423754 -0.064270578 0.70378041 1.7239495e-38
0.56163877 -0.061480988 0.70312417 1.7332421e-38
0.50675774 -0.053093955 0.70321786 1.2722634e-38
0.5142116 -0.055385984 0.70560861 1.3460562e-38
0.5250327 -0.054828119 0.7064026 1.5212279e-38
0.53533387 -0.055057161 0.70607996 1.7793396e-38
0.54528433 -0.055276964 0.70646 1.9176328e-38
0.55477387 -0.05423617 0.70689011 1.9453275e-38
0.56404126 -0.054183513 0.70573497 1.5673659e-38
0.57245409 -0.05235213 0.70284545 4.889405e-39
0.4993504 -0.046388116 0.70121038 1.2631522e-38
0.50455219 -0.04498611 0.70502299 1.3459476e-38
0.51483893 -0.044639692 0.70657104 1.6687409e-38
0.52482128 -0.045251351 0.7057603 1.5027888e-38
0.53548181 -0.044784721 0.70581722 1.5212279e-38
0.54527324 -0.045083199 0.70580149 1.7240579e-38
0.55480278 -0.044954248 0.70634639 1.9452916e-38
0.56454438 -0.045055639 0.70667619 1.6872551e-38
0.57396656 -0.043905661 0.70594269 5.1659933e-39
0.58232546 -0.042584978 0.70328391 4.8894064e-39
0.50615108 -0.036016881 0.70382959 1.281519e-38
0.51526397 -0.034617566 0.70531458 1.8900097e-38
0.52488703 -0.034846161 0.70506859 1.5949844e-38
0.53486049 -0.035101112 0.70535958 1.5027888e-38
0.5453282 -0.035065394 0.70573151 1.5027888e-38
0.55495232 -0.035025083 0.70614481 1.4843882e-38
0.56441516 -0.035053916 0.70636225 6.4563552e-39
0.57468897 -0.034904543 0.70629978 4.8894064e-39
0.58401054 -0.034647692 0.70591354 4.8894064e-39
0.59196121 -0.031793129 0.70461106 8.8523331e-39
0.50857913 -0.028862182 0.70110321 1.3460556e-38
0.51513743 -0.025781609 0.70277643 1.5211916e-38
0.52471232 -0.025057668 0.70424902 1.8530956e-38
0.53510821 -0.024861336 0.70553172 1.5857648e-38
0.54502392 -0.025014006 0.70611852 1.4014111e-38
0.55442095 -0.02494896 0.70635498 6.6407352e-39
0.56454283 -0.025013698 0.70635021 4.8894064e-39
0.57478589 -0.025244171 0.70634151 4.8894064e-39
0.58486772 -0.025026035 0.70641911 4.889405e-39
0.59394622 -0.024025429 0.70618212 8.2995181e-39
0.60201597 -0.022886047 0.70358193 1.871499e-38
0.51883352 -0.019236002 0.70071113 1.3460558e-38
0.5258708 -0.016252004 0.70227486 1.4935691e-38
0.53484792 -0.015019949 0.70454109 1.6410838e-38
0.54486495 -0.014865923 0.70608199 6.0872055e-39
0.55448669 -0.015284831 0.70650333 4.8890463e-39
0.56447113 -0.014822625 0.70643836 4.8894064e-39
0.57448107 -0.014996569 0.70640564 4.8894064e-39
0.58482319 -0.014661009 0.70647144 4.889405e-39
0.5948348 -0.015237303 0.70644408 1.0419646e-38
0.60480773 -0.014506469 0.70495868 1.9821696e-38
0.61425948 -0.013640152 0.70315474 1.8988697e-38
0.62041062 -0.010105547 0.70236701 2.0559625e-38
0.53620356 -0.0063867909 0.70208818 5.072671e-39
0.54476666 -0.0047928584 0.70463639 4.2436586e-39
0.55433488 -0.0050582793 0.70662564 4.9812377e-39
0.56443018 -0.0046356167 0.70648873 4.8894078e-39
0.57477015 -0.0048753396 0.70620227 4.9812419e-39
0.58514631 -0.0051123286 0.70608979 8.3917081e-39
0.59558547 -0.0053479904 0.70611703 1.8715711e-38
0.60572296 -0.0055924631 0.70547104 2.0005716e-38
0.61497587 -0.00447392 0.70559108 1.9452909e-38
0.62272418 -0.003966656 0.7051459 1.9453276e-38
0.54664731 0.0031135303 0.7023192 3.6901051e-39
0.55465794 0.0051613436 0.70475543 4.0588988e-39
0.56454146 0.0046713348 0.70639127 5.1659905e-39
0.57497978 0.0046036984 0.7059502 7.7467072e-39
0.58556938 0.0046266448 0.70574862 1.4936056e-38
0.59493893 0.0051113581 0.70563942 1.539667e-38
0.60423499 0.0049851369 0.70594817 1.7977786e-38
0.61432874 0.0056007868 0.7070384 1.908449e-38
0.62156826 0.0040527643 0.70703369 1.9175964e-38
0.55706745 0.011635301 0.70179379 4.519493e-39
0.5650394 0.015150397 0.70406049 1.0511061e-38
0.57544976 0.014878254 0.70538378 1.6134242e-38
0.58545065 0.014818254 0.70543236 1.5212279e-38
0.59497893 0.015725248 0.70534861 1.5120083e-38
0.60447061 0.015516509 0.70567858 1.5027888e-38
0.61418378 0.014922399 0.70588285 1.6134235e-38
0.62116826 0.014599623 0.70446855 1.7056192e-38
0.56807745 0.022198293 0.70139176 1.0602497e-38
0.57483566 0.025172848 0.70319974 1.539667e-38
0.58484894 0.02511763 0.70422322 1.5488866e-38
0.5946312 0.025301119 0.70494401 1.5120083e-38
0.60443556 0.024703018 0.70469612 1.5304475e-38
0.61285132 0.023522714 0.70289075 1.5027888e-38
0.57810414 0.031746525 0.70156449 1.2262019e-38
0.5856064 0.034670372 0.70276695 1.6594852e-38
0.59439349 0.034485247 0.70459592 1.6871799e-38
0.60395509 0.032012042 0.70299369 1.5857647e-38
0.58841789 0.040464021 0.70097983 1.3091778e-38
0.59172994 0.041304525 0.70201015 1.4658739e-38
0.45729291 0.19806556 0.70381385 4.6025508e-39
0.46437475 0.19741844 0.704611 6.4461005e-39
0.47178099 0.19859552 0.70321798 8.1099658e-39
0.44849887 0.20783713 0.70345289 4.5128873e-39
0.45341906 0.20380013 0.706635 4.7854959e-39
0.46530169 0.20112 0.70840746 6.1648164e-39
0.47441879 0.20488888 0.70746934 6.8116306e-39
0.43976727 0.21926527 0.7012201 4.9774836e-39
0.44498008 0.21500207 0.70578921 4.4178008e-39
0.45026517 0.21041331 0.7092883 4.6925786e-39
0.47730294 0.21817873 0.70890594 6.7169056e-39
0.4367519 0.22564273 0.70486313 4.3263282e-39
0.44179624 0.22203293 0.70829237 4.7844141e-39
0.46998 0.22823016 0.70964181 6.4410404e-39
0.47419265 0.22299749 0.70907694 6.5328759e-39
0.4297663 0.23739946 0.70112401 3.9579059e-39
0.43303159 0.23463768 0.70606464 4.3248821e-39
0.46909556 0.2325857 0.70844966 6.4410404e-39
0.43434516 0.24476504 0.70602894 4.2330466e-39
0.44060457 0.24926564 0.70922083 3.9564597e-39
0.45855615 0.24938563 0.70667458 6.2570106e-39
0.46223077 0.24469681 0.70782882 6.3488461e-39
0.43835339 0.2512159 0.7017765 4.4199686e-39
0.44487897 0.25296569 0.70571041 4.3252422e-39
0.4532963 0.25146139 0.70841235 6.1648164e-39
0.52892542 -0.33119348 0.7120716 3.043993e-39
0.53322732 -0.33358163 0.71608692 2.9517974e-39
0.52469581 -0.32418123 0.71422195 2.3064098e-39
0.5306291 -0.32954282 0.71960008 2.8599577e-39
0.52421522 -0.31467959 0.71546435 2.7799786e-39
0.52536023 -0.30499482 0.71468395 2.7886036e-39
0.5276382 -0.29497451 0.71508646 2.789321e-39
0.52939862 -0.28770256 0.71407115 2.7896812e-39
0.53075182 -0.28311586 0.71543574 2.8822341e-39
0.53241783 -0.27522439 0.71508789 2.8822355e-39
0.53436238 -0.2651346 0.7150265 2.8822355e-39
0.53587461 -0.2547479 0.71501553 2.974071e-39
0.53708196 -0.24508591 0.71498787 2.974071e-39
0.53832501 -0.2352194 0.71480322 3.3414116e-39
0.53938806 -0.22552012 0.71443939 3.4339646e-39
0.54020768 -0.22197597 0.71813267 2.7904e-39
0.53987139 -0.2180893 0.71119511 4.5305983e-39
0.54083073 -0.21459959 0.71558768 2.7896812e-39
0.54188448 -0.20510873 0.7149024 2.786447e-39
0.54304922 -0.19482674 0.71536911 2.7868057e-39
0.54419118 -0.18546401 0.7154209 2.786447e-39
0.54726654 -0.17531838 0.71442688 2.781775e-39
0.54935718 -0.16758449 0.71386158 2.7767458e-39
0.55142337 -0.16316697 0.71437562 2.7749493e-39
0.55623788 -0.15833169 0.71361256 3.1383522e-39
0.56378192 -0.15680365 0.71362394 3.5979053e-39
0.58291417 0.0091461288 0.71338433 1.0142673e-38
0.45723069 0.2068515 0.71158063 5.6127272e-39
0.46496165 0.20605166 0.7120893 6.2570106e-39
0.47301897 0.20773089 0.71160662 6.4410404e-39
0.44858789 0.21728036 0.71110225 5.0606381e-39
0.4547244 0.21510933 0.71306562 5.8885925e-39
0.46477103 0.21464463 0.71392739 6.4410404e-39
0.47327659 0.21441826 0.71184164 6.6247114e-39
0.43924102 0.22870982 0.71053034 5.1524736e-39
0.44547197 0.22546916 0.71206057 5.7045627e-39
0.45470735 0.22484626 0.71431619 6.1648164e-39
0.46423212 0.22489755 0.71334511 6.6247114e-39
0.47135487 0.22251076 0.71094447 6.6247114e-39
0.43789795 0.23589745 0.71166795 5.1528323e-39
0.44473353 0.23465729 0.71363342 6.0729809e-39
0.45449969 0.23506199 0.71409094 6.4410404e-39
0.46329457 0.23395893 0.71190959 6.6247114e-39
0.43798456 0.2425857 0.71129489 4.9688026e-39
0.4445833 0.24485014 0.71284014 5.796757e-39
0.45363161 0.2438205 0.71307516 6.4406816e-39
0.46048081 0.24176887 0.71129084 6.5328759e-39
0.44763091 0.25045857 0.71084422 5.2446678e-39
0.52080476 -0.33276936 0.72944969 2.4908052e-39
0.5357275 -0.33434057 0.72155935 2.8599577e-39
0.52564979 -0.32300764 0.72549236 1.845419e-39
0.52531266 -0.31542924 0.72520518 2.7767444e-39
0.52673554 -0.30501527 0.72496879 2.7904e-39
0.53061861 -0.30082902 0.72848165 2.7860868e-39
0.52875024 -0.29560944 0.72471249 2.7904e-39
0.53020823 -0.29163066 0.72828877 2.7904e-39
0.52987546 -0.28923449 0.72136807 2.7904e-39
0.53146613 -0.28468776 0.72519124 2.7904e-39
0.53351539 -0.27467674 0.72504556 2.7904e-39
0.53537887 -0.26477042 0.72521913 2.7904e-39
0.53677851 -0.25495768 0.72501844 2.7904e-39
0.53803253 -0.24508423 0.72478223 2.7904e-39
0.53928012 -0.23542927 0.72464824 2.7904e-39
0.54019624 -0.23225893 0.728311 2.7904e-39
0.53971022 -0.22838598 0.72094268 2.7904e-39
0.54086751 -0.22443852 0.7255758 2.7904e-39
0.54200917 -0.21498562 0.72475314 2.7904e-39
0.54332286 -0.20501781 0.72515213 2.7904e-39
0.54431289 -0.19512324 0.72486496 2.7904e-39
0.5452888 -0.18506595 0.72531968 2.7904e-39
0.54665637 -0.17466529 0.72510886 2.7907602e-39
0.54853278 -0.16702847 0.72357506 2.8836775e-39
0.55271095 -0.16392298 0.72579813 2.9773164e-39
0.55737484 -0.15870239 0.72383183 2.965453e-39
0.56228209 -0.15620233 0.72749114 3.1415864e-39
0.53354943 -0.33253759 0.73734748 2.9521561e-39
0.52782232 -0.32429025 0.73472095 1.8450589e-39
0.52735692 -0.31497535 0.73510492 2.775308e-39
0.52811694 -0.30495182 0.73496187 2.7821352e-39
0.5294863 -0.2972531 0.73485297 2.7824939e-39
0.53053194 -0.29254538 0.7357682 2.7796198e-39
0.53214788 -0.28499576 0.73506975 2.7814163e-39
0.53414434 -0.27514267 0.73483503 2.781775e-39
0.53566402 -0.265158 0.73532116 2.7806974e-39
0.53722459 -0.25486907 0.73494041 2.8739721e-39
0.53888655 -0.24454179 0.73477834 2.7828526e-39
0.53986979 -0.23860995 0.73462409 2.7846491e-39
0.54069686 -0.23354036 0.73528486 2.781775e-39
0.54177052 -0.22513177 0.73485863 2.7835715e-39
0.54303855 -0.21486329 0.73491287 2.7839316e-39
0.54427731 -0.20474306 0.7352646 2.7839316e-39
0.55130988 -0.20839489 0.7391845 2.789321e-39
0.54532552 -0.19531369 0.73489958 2.7850092e-39
0.54645669 -0.18482898 0.73544431 2.7850092e-39
0.54790425 -0.17552133 0.73457623 2.7878861e-39
0.5509814 -0.17186555 0.73827428 3.0572927e-39
0.54946649 -0.16950057 0.733127 2.7904e-39
0.5537315 -0.16481458 0.73650318 3.0662751e-39
0.55718052 -0.15872146 0.73529154 3.1527268e-39
0.56476772 -0.15702343 0.73337305 3.2316297e-39
0.57121569 -0.15663649 0.73361158 3.32131e-39
0.53504461 -0.33331794 0.748676 2.8599577e-39
0.52860296 -0.32367972 0.74528676 1.9372573e-39
0.53098655 -0.3290832 0.7457341 2.8599577e-39
0.56759495 -0.32720098 0.74900413 5.0737949e-39
0.5291791 -0.31508392 0.74493593 2.8599577e-39
0.53010511 -0.31071138 0.74855751 2.8599577e-39
0.57414019 -0.31148845 0.74959487 5.0737836e-39
0.52954406 -0.30598328 0.74230313 2.8599577e-39
0.53049457 -0.30401221 0.74715489 2.8599577e-39
0.54027849 -0.30281094 0.74900496 2.9521589e-39
0.57684344 -0.30329365 0.74884349 4.7971897e-39
0.53137207 -0.29491252 0.74493027 2.8599577e-39
0.53311545 -0.28517303 0.74473542 2.8599577e-39
0.53471959 -0.27504939 0.7450757 2.8599577e-39
0.53592825 -0.26501521 0.74528104 2.8599577e-39
0.58277744 -0.26183316 0.74908835 5.7191615e-39
0.53734559 -0.25512323 0.74518609 2.8599577e-39
0.54406035 -0.25501621 0.74515009 4.9816034e-39
0.58201575 -0.25837952 0.74993473 5.7191643e-39
0.53899181 -0.24542747 0.74485284 2.8599577e-39
0.54020631 -0.2410351 0.74894822 2.8599577e-39
0.53986317 -0.23940977 0.74243081 2.8599577e-39
0.5409081 -0.23490164 0.74540812 2.8599577e-39
0.54266483 -0.22486225 0.74525839 2.8599577e-39
0.58840621 -0.22830322 0.74973613 5.7191531e-39
0.54410779 -0.21513754 0.74521863 2.8599577e-39
0.59106028 -0.2166062 0.74911332 6.1801214e-39
0.54553044 -0.20529605 0.7453053 2.8599577e-39
0.59237164 -0.20198531 0.74996853 5.8113515e-39
0.54678077 -0.19479877 0.7450707 2.8599577e-39
0.54815114 -0.18526083 0.74501878 2.8599577e-39
0.55033988 -0.18276909 0.74952084 3.0443545e-39
0.54919523 -0.17805158 0.74354017 2.8599591e-39
0.55157661 -0.1740413 0.74599206 2.8603192e-39
0.55610728 -0.16528617 0.74450469 2.8617555e-39
0.56091124 -0.16100022 0.74404675 2.8599577e-39
0.55987281 -0.15958688 0.74985552 2.8599577e-39
0.56350183 -0.15701081 0.74513209 2.953954e-39
0.53688616 -0.33303195 0.75539827 2.582998e-39
0.54353464 -0.33323878 0.75867122 3.59715e-39
0.55600792 -0.33092061 0.75584245 4.612451e-39
0.56345081 -0.33236307 0.75031149 4.8890449e-39
0.5298425 -0.32235205 0.751176 1.568465e-39
0.53465086 -0.3247419 0.75503796 2.6752049e-39
0.5447979 -0.32514763 0.75831652 3.3209442e-39
0.55503565 -0.32454571 0.75642765 5.0738019e-39
0.56216049 -0.32394037 0.75407434 5.1660017e-39
0.52993548 -0.31875008 0.75106245 2.8599577e-39
0.53385144 -0.31468195 0.75549072 3.5979067e-39
0.54461586 -0.31480509 0.75894624 4.889405e-39
0.55506736 -0.31523761 0.75785524 5.0738019e-39
0.5638206 -0.31468907 0.75540024 5.1660017e-39
0.57118219 -0.31490564 0.75064802 5.1659947e-39
0.53410447 -0.30515504 0.75605786 3.3213128e-39
0.54411501 -0.30817577 0.75974059 4.7972094e-39
0.55531949 -0.30579084 0.75920111 5.0738019e-39
0.56453437 -0.30460429 0.75670475 5.1660017e-39
0.57219386 -0.30392927 0.75293165 5.1660003e-39
0.5347544 -0.29510903 0.75557572 3.1365544e-39
0.55670303 -0.2951895 0.75927615 5.1660003e-39
0.56480515 -0.29482529 0.75687915 5.1656402e-39
0.57232416 -0.29460445 0.75392038 5.1660017e-39
0.53652686 -0.28508395 0.75518674 3.2287542e-39
0.54094732 -0.28251284 0.75917286 3.5053453e-39
0.55565608 -0.28457192 0.75926524 5.0738033e-39
0.56483483 -0.28502667 0.75670731 5.1660003e-39
0.57315701 -0.28444481 0.75393516 5.1660003e-39
0.53749526 -0.27463728 0.75430155 3.2287528e-39
0.54251802 -0.27383795 0.75900471 3.6901051e-39
0.55476278 -0.27497175 0.75916582 5.0738019e-39
0.56476831 -0.27505136 0.75674164 5.1660003e-39
0.5738349 -0.27450681 0.75385392 5.1660017e-39
0.53793007 -0.26487461 0.75325364 3.0443545e-39
0.54211134 -0.26432946 0.75843364 3.7823021e-39
0.55492556 -0.26516333 0.7590239 5.0738019e-39
0.56459153 -0.26500851 0.75689656 5.0738047e-39
0.57466221 -0.26489592 0.75357962 5.1660017e-39
0.53877217 -0.25537241 0.75264663 2.8599605e-39
0.54312468 -0.25438848 0.758075 3.6901037e-39
0.55585861 -0.25551695 0.75865662 5.0738047e-39
0.56476951 -0.25522169 0.75686842 5.0738047e-39
0.57411051 -0.25470236 0.75432277 5.1660003e-39
0.58148748 -0.25376773 0.75109422 5.4425844e-39
0.53964168 -0.24690001 0.75142753 2.8599577e-39
0.543419 -0.24451861 0.75691694 3.5057096e-39
0.55706954 -0.24513081 0.7593776 5.1660003e-39
0.56435192 -0.2454952 0.75744253 5.1659989e-39
0.57450336 -0.24521674 0.75480789 5.1659989e-39
0.58182013 -0.24473901 0.75243479 5.1660003e-39
0.54473388 -0.23482379 0.75629932 3.5053453e-39
0.55616087 -0.23571418 0.75982261 4.9816034e-39
0.56544369 -0.23516764 0.75827974 5.1660003e-39
0.57532555 -0.23495226 0.75556356 5.1660003e-39
0.58225745 -0.2351445 0.75331914 5.1660017e-39
0.54631245 -0.22494672 0.75554866 3.3209512e-39
0.55261791 -0.22346957 0.75975412 4.612451e-39
0.5662443 -0.22592871 0.75914466 5.1660003e-39
0.57458764 -0.22503413 0.75698 5.1660003e-39
0.58361048 -0.22371915 0.7536484 5.2581959e-39
0.54735154 -0.21484289 0.75417572 3.0443559e-39
0.55237132 -0.21575256 0.75922114 4.1514574e-39
0.56874919 -0.21567182 0.75962919 1.0973183e-38
0.57495803 -0.21483472 0.75802052 1.1526351e-38
0.58307523 -0.21459724 0.7550351 6.9173389e-39
0.59092963 -0.21065795 0.75795895 4.1510945e-39
0.5483796 -0.20494747 0.75383157 2.9521589e-39
0.55167788 -0.20367205 0.75838214 3.4131511e-39
0.57520902 -0.20513454 0.75854939 1.3450454e-38
0.58389932 -0.20509547 0.75573915 1.1523804e-38
0.54892313 -0.19537693 0.75247931 2.8599577e-39
0.55176955 -0.19452102 0.75755203 3.2291129e-39
0.57596135 -0.19543017 0.7585178 1.1049038e-38
0.58486187 -0.19472775 0.75578099 8.0189501e-39
0.59002906 -0.19953276 0.75252473 5.1660017e-39
0.54960978 -0.18829806 0.75270063 2.8603178e-39
0.55278438 -0.18476465 0.7556482 3.0443545e-39
0.57608396 -0.18452786 0.75812525 1.1327433e-38
0.58561635 -0.18492971 0.75508088 1.6404686e-38
0.55515957 -0.17465878 0.7552169 3.0443545e-39
0.56926423 -0.17169333 0.75961488 1.2078425e-38
0.57449162 -0.17506856 0.75830013 1.4378562e-38
0.58432245 -0.17523688 0.75485301 1.5021764e-38
0.59006286 -0.1748438 0.7524879 1.9730236e-38
0.54801047 -0.16492996 0.75939649 2.7857281e-39
0.55695492 -0.1656204 0.75406653 3.1365558e-39
0.56495953 -0.16446599 0.75725436 4.1510973e-39
0.57423323 -0.1646747 0.7573722 4.6116943e-39
0.58216572 -0.16589542 0.75546646 5.9953686e-39
0.56535161 -0.1583208 0.75182372 3.6901065e-39
0.57411355 -0.15848574 0.75419199 3.7823021e-39
0.58485192 -0.15475827 0.75449151 3.4142287e-39
0.54844797 -0.33291891 0.76025903 3.043979e-39
0.55042857 -0.33191723 0.76077783 3.1358117e-39
0.54899597 -0.32867762 0.7601856 5.9938622e-39
0.5506894 -0.32986736 0.76047611 2.9525233e-39
0.57015896 -0.31162062 0.76117617 5.1660003e-39
0.53942138 -0.30220184 0.76012874 4.7972066e-39
0.54522634 -0.30361143 0.76048493 4.7972094e-39
0.55141991 -0.30220258 0.76038361 5.0738019e-39
0.53931421 -0.29553539 0.76025546 4.5202511e-39
0.54437101 -0.29488397 0.76100928 4.7050109e-39
0.55156887 -0.29484901 0.76067394 5.0738047e-39
0.54498923 -0.28525549 0.76083267 4.704648e-39
0.55132776 -0.28675386 0.76030219 5.0738019e-39
0.56775796 -0.28649467 0.7639873 4.7968464e-39
0.54575986 -0.27539408 0.76044226 4.704648e-39
0.54694206 -0.26536021 0.76044792 4.704648e-39
0.55105621 -0.26042789 0.76005191 5.1660003e-39
0.54825491 -0.25609237 0.76037067 4.4280513e-39
0.55102754 -0.25440747 0.76040751 4.9816062e-39
0.54909933 -0.24660878 0.76006556 4.7046466e-39
0.55204219 -0.24476677 0.76041675 4.797208e-39
0.55436724 -0.23486058 0.76034421 4.797208e-39
0.55651534 -0.22587487 0.76019585 4.797208e-39
0.56163615 -0.22438966 0.76032716 4.8894078e-39
0.55678129 -0.21356484 0.76046652 4.796845e-39
0.56336099 -0.2149547 0.7605803 7.0095261e-39
0.55619013 -0.20506039 0.76119637 4.4280527e-39
0.56521368 -0.20515218 0.76074582 1.5120487e-38
0.55649304 -0.19498248 0.76181722 4.3354927e-39
0.56468642 -0.19531997 0.76131397 1.3737925e-38
0.57085186 -0.19376776 0.76009303 1.3454786e-38
0.55728167 -0.18558884 0.76151341 3.9666976e-39
0.5643149 -0.18507138 0.76182407 1.4936096e-38
0.57165009 -0.18577394 0.76126105 1.3918305e-38
0.5588426 -0.17600147 0.76098943 3.5979053e-39
0.56456256 -0.17512165 0.76091838 1.4013427e-38
0.56378233 -0.16917136 0.76014912 4.7968394e-39
