# .PCD v0.7 - Point Cloud Data file format
VERSION 0.7
FIELDS x y z rgb
SIZE 4 4 4 4
TYPE F F F F
COUNT 1 1 1 1
WIDTH 1011
HEIGHT 1
VIEWPOINT 0 0 0 1 0 0 0
POINTS 1011
DATA ascii
0.69447225 -0.075120836 0.61000085 1.0879084e-38
0.70396054 -0.074929528 0.61000085 1.0879084e-38
0.71427047 -0.075126655 0.61000097 1.0879084e-38
0.72466654 -0.075095437 0.61000115 1.0879084e-38
0.73487568 -0.074626006 0.61000127 1.0879084e-38
0.7454046 -0.075333886 0.61000139 1.0879084e-38
0.75474179 -0.074990593 0.61000144 1.0879084e-38
0.76420653 -0.074645519 0.6100015 1.0879084e-38
0.77517116 -0.075368099 0.6100015 1.0879084e-38
0.78489745 -0.075017914 0.61000156 1.0879084e-38
0.79475927 -0.074665852 0.61000162 1.0879084e-38
0.80474627 -0.075310692 0.61000168 1.0879084e-38
0.8147974 -0.075213768 0.61000168 1.0879084e-38
0.82513154 -0.07459341 0.61000186 1.0879084e-38
0.83403802 -0.075156637 0.61000192 1.0879084e-38
0.84422833 -0.075342484 0.61000186 1.0879084e-38
0.85522932 -0.07442309 0.6100021 1.0879084e-38
0.86449146 -0.074996471 0.61000216 1.0879084e-38
0.51104462 -0.06065049 0.61849165 9.1277275e-39
0.64619684 -0.067466259 0.61000061 1.0879084e-38
0.6550234 -0.064996921 0.61000067 1.0879084e-38
0.66503811 -0.064965181 0.61000067 1.0879084e-38
0.67478335 -0.065085754 0.61000073 1.0879084e-38
0.68460578 -0.064983837 0.61000079 1.0879084e-38
0.69402361 -0.064949639 0.61000085 1.0879084e-38
0.70418811 -0.0650727 0.61000091 1.0879084e-38
0.71450132 -0.065195888 0.61000097 1.0879084e-38
0.72431499 -0.064690001 0.61000127 1.0879084e-38
0.73487568 -0.065059081 0.61000127 1.0879084e-38
0.74574113 -0.065393135 0.61004299 1.0879084e-38
0.7545743 -0.064675756 0.61000144 1.0879084e-38
0.76420647 -0.064883336 0.61000144 1.0879084e-38
0.77517128 -0.06553293 0.61000156 1.0879084e-38
0.78472292 -0.06448961 0.61000156 1.0879084e-38
0.79475915 -0.064700291 0.61000156 1.0879084e-38
0.80474627 -0.065278657 0.61000168 1.0879084e-38
0.8148737 -0.065358736 0.61000168 1.0879084e-38
0.82513154 -0.064425677 0.61000186 1.0879084e-38
0.8340382 -0.064929627 0.61000192 1.0879084e-38
0.84456474 -0.065525219 0.61000186 1.0879084e-38
0.85546553 -0.064705484 0.61000204 1.0879084e-38
0.86449116 -0.064566739 0.61000216 1.0879084e-38
0.44418028 -0.05143391 0.61359358 1.0786889e-38
0.50741011 -0.054179881 0.61551958 9.8652925e-39
0.51022053 -0.05908981 0.61690152 9.3117586e-39
0.65779871 -0.057371318 0.61000067 1.0879084e-38
0.66542238 -0.055128392 0.61000067 1.0879084e-38
0.67478347 -0.055002138 0.61000067 1.0879084e-38
0.68427378 -0.054872852 0.61000073 1.0879084e-38
0.69424784 -0.055160858 0.61000091 1.0879084e-38
0.70435107 -0.054985669 0.61000085 1.0879084e-38
0.71403974 -0.054882135 0.61000097 1.0879084e-38
0.72449869 -0.054932635 0.61000121 1.0879084e-38
0.73487568 -0.05549214 0.61000127 1.0879084e-38
0.74523139 -0.054876853 0.61000139 1.0879084e-38
0.75474197 -0.054623473 0.61000144 1.0879084e-38
0.76420653 -0.055121172 0.61000144 1.0879084e-38
0.77517128 -0.055697776 0.6100015 1.0879084e-38
0.78489769 -0.054229282 0.61000156 1.0879084e-38
0.79475927 -0.054734744 0.61000156 1.0879084e-38
0.80474609 -0.055246625 0.61000162 1.0879084e-38
0.81464344 -0.055540688 0.61000162 1.0879084e-38
0.82513154 -0.054257948 0.61000186 1.0879084e-38
0.83403808 -0.054702602 0.61000192 1.0879084e-38
0.84456462 -0.055228125 0.61000186 1.0879084e-38
0.85500991 -0.05545279 0.61000204 1.0879084e-38
0.86473048 -0.054789819 0.6100021 1.0879084e-38
0.34320486 -0.049984589 0.61607623 1.0786889e-38
0.46294266 -0.044746254 0.61207628 1.0786889e-38
0.49907309 -0.042278886 0.61993724 1.1708845e-38
0.5038268 -0.047562808 0.6153549 1.1248227e-38
0.66722488 -0.047892064 0.61000079 1.0879084e-38
0.67497253 -0.045120202 0.61000067 1.0879084e-38
0.68462133 -0.045132142 0.61000085 1.0879084e-38
0.6942479 -0.04493472 0.61000085 1.0879084e-38
0.70400953 -0.044733208 0.61000091 1.0879084e-38
0.71427065 -0.044951372 0.61000097 1.0879084e-38
0.72449887 -0.045434777 0.61000115 1.0879084e-38
0.73487568 -0.044968519 0.61000133 1.0879084e-38
0.74540454 -0.044495426 0.61000133 1.0879084e-38
0.75474203 -0.044924293 0.61000144 1.0879084e-38
0.76420641 -0.045358993 0.6100015 1.0879084e-38
0.77542228 -0.045336679 0.61000156 1.0879084e-38
0.7848978 -0.044329379 0.61000156 1.0879084e-38
0.79475915 -0.044769194 0.61000162 1.0879084e-38
0.80477929 -0.045290008 0.61003071 1.0879084e-38
0.81487381 -0.045666274 0.61000168 1.0879084e-38
0.82534224 -0.044389285 0.61000192 1.0879084e-38
0.8340382 -0.044475593 0.61000192 1.0879084e-38
0.84456474 -0.044931043 0.61000186 1.0879084e-38
0.85522938 -0.045392487 0.6100021 1.0879084e-38
0.86426926 -0.045485042 0.6100021 1.0879084e-38
0.49663609 -0.037583247 0.6173774 1.1431178e-38
0.50756079 -0.030136701 0.61528242 8.9426146e-39
0.6774233 -0.038066201 0.61000085 1.0879084e-38
0.68469012 -0.035611242 0.61000079 1.0879084e-38
0.6942479 -0.034708571 0.61000091 1.0879084e-38
0.70418805 -0.035112198 0.61000091 1.0879084e-38
0.71445209 -0.035258826 0.61000097 1.0879084e-38
0.72449881 -0.034987129 0.61000109 1.0879084e-38
0.73487568 -0.034444887 0.61000127 1.0879084e-38
0.74540454 -0.034858398 0.61000144 1.0879084e-38
0.75474197 -0.035225116 0.61000144 1.0879084e-38
0.76420641 -0.035596825 0.61000144 1.0879084e-38
0.77510524 -0.034805678 0.6100015 1.0879084e-38
0.78489763 -0.034429468 0.61000156 1.0879084e-38
0.79475921 -0.034803636 0.61000162 1.0879084e-38
0.80474627 -0.035182569 0.61000168 1.0879084e-38
0.8148737 -0.035566829 0.61000162 1.0879084e-38
0.82490468 -0.035321124 0.61000192 1.0879084e-38
0.83403814 -0.034248576 0.61000192 1.0879084e-38
0.84456462 -0.034633964 0.61000186 1.0879084e-38
0.85522938 -0.035024405 0.6100021 1.0879084e-38
0.86449116 -0.035363495 0.61000216 1.0879084e-38
0.50675738 -0.028338313 0.61939025 1.1247865e-38
0.51553768 -0.020725664 0.61732769 1.0049322e-38
0.68728727 -0.028258806 0.61000091 1.0879084e-38
0.69475567 -0.025975116 0.61000097 1.0879084e-38
0.70418805 -0.024813278 0.61000085 1.0879084e-38
0.71410471 -0.024937784 0.61000097 1.0879084e-38
0.72449887 -0.024539489 0.61000097 1.0879084e-38
0.73487568 -0.024877956 0.61000127 1.0879084e-38
0.7454046 -0.025221381 0.61000139 1.0879084e-38
0.75474203 -0.025525944 0.61000144 1.0879084e-38
0.76445383 -0.025309242 0.6100015 1.0879084e-38
0.77497417 -0.024499308 0.61000156 1.0879084e-38
0.78489774 -0.024529556 0.61000156 1.0879084e-38
0.79475915 -0.024838088 0.61000162 1.0879084e-38
0.80474609 -0.025150534 0.61000162 1.0879084e-38
0.8148737 -0.025467385 0.61000168 1.0879084e-38
0.82513154 -0.025788313 0.61000186 1.0879084e-38
0.83426785 -0.024657188 0.61000198 1.0879084e-38
0.84456462 -0.024336876 0.61000186 1.0879084e-38
0.85522926 -0.024656331 0.61000198 1.0879084e-38
0.86449128 -0.024933772 0.61000216 1.0879084e-38
0.32924718 -0.014265193 0.61108565 0
0.51840943 -0.018404724 0.61724484 1.0326269e-38
0.52444625 -0.013203323 0.61670136 1.0602855e-38
0.6979534 -0.019945189 0.61000103 1.0879084e-38
0.70543939 -0.016419368 0.61000103 1.0879084e-38
0.71427047 -0.014776101 0.61000097 1.0879084e-38
0.72449875 -0.015041633 0.61000109 1.0879084e-38
0.73487568 -0.015311022 0.61000127 1.0879084e-38
0.7454046 -0.015584363 0.61000144 1.0879084e-38
0.75489998 -0.01514559 0.61000144 1.0879084e-38
0.76400012 -0.014562101 0.61029774 1.0879084e-38
0.77517116 -0.014390089 0.6100015 1.0879084e-38
0.78489763 -0.014629647 0.61000156 1.0879084e-38
0.79475915 -0.014872533 0.61000162 1.0879084e-38
0.80474609 -0.015118501 0.61000162 1.0879084e-38
0.8148737 -0.015367938 0.61000168 1.0879084e-38
0.82513154 -0.015620586 0.61000186 1.0879084e-38
0.83382457 -0.01554192 0.61000198 1.0879084e-38
0.84483212 -0.014772163 0.61000192 1.0879084e-38
0.85522932 -0.014288256 0.61000198 1.0879084e-38
0.86449116 -0.014504042 0.61000216 1.0879084e-38
0.5286631 -0.009232847 0.6175192 1.0971279e-38
0.53439867 -0.004194411 0.61729258 1.069397e-38
0.71553832 -0.0053708036 0.61000103 1.0879084e-38
0.72449875 -0.0055437745 0.61000121 1.0879084e-38
0.7351132 -0.0052258959 0.61000133 1.0879084e-38
0.74540448 -0.0049836426 0.61000139 1.0879084e-38
0.7545743 -0.0045477925 0.61000144 1.0879084e-38
0.76420641 -0.0043578609 0.61000144 1.0879084e-38
0.7751711 -0.0045549273 0.6100015 1.0879084e-38
0.78489769 -0.0047297399 0.61000156 1.0879084e-38
0.79475915 -0.0049069813 0.61000162 1.0879084e-38
0.80474621 -0.0050864723 0.61000168 1.0879084e-38
0.81485474 -0.0051237871 0.610466 1.0879084e-38
0.8251316 -0.0054528564 0.61000186 1.0879084e-38
0.83403802 -0.0056129307 0.61000192 1.0879084e-38
0.8443253 -0.0055804015 0.61000186 1.0879084e-38
0.8552292 -0.0049569872 0.61000204 1.0879084e-38
0.86449128 -0.0051172851 0.6100021 1.0879084e-38
0.5456751 0.005828009 0.61657172 1.1339701e-38
0.55203813 0.0089188563 0.61000001 1.0786889e-38
0.71461636 0.0053642574 0.61000097 1.0879084e-38
0.72449881 0.0049038674 0.61000115 1.0879084e-38
0.73463815 0.0052180309 0.61000133 1.0879084e-38
0.74540454 0.0056170784 0.61000133 1.0879084e-38
0.75474203 0.0055114152 0.61000144 1.0879084e-38
0.76420653 0.0054043131 0.61000144 1.0879084e-38
0.77535123 0.0053701191 0.61043674 1.0879084e-38
0.78489769 0.0051701684 0.61000156 1.0879084e-38
0.79475921 0.0050585726 0.61000156 1.0879084e-38
0.80474627 0.0049455594 0.61000168 1.0879084e-38
0.81487381 0.0048309518 0.61000162 1.0879084e-38
0.8251316 0.0047148722 0.61000186 1.0879084e-38
0.83403832 0.0046140845 0.61000192 1.0879084e-38
0.84456474 0.0044949651 0.61000186 1.0879084e-38
0.85522932 0.0043742815 0.61000198 1.0879084e-38
0.86449128 0.0042694709 0.61000216 1.0879084e-38
0.40646341 0.014718544 0.61549145 1.0786889e-38
0.549389 0.014501005 0.61000001 1.0786889e-38
0.55488622 0.015370217 0.61125094 1.0694332e-38
0.56274599 0.018351598 0.61000007 1.0786889e-38
0.70651257 0.017309513 0.61000103 1.0879084e-38
0.71427059 0.01539917 0.61000097 1.0879084e-38
0.72441983 0.015342214 0.61025923 1.0879084e-38
0.73487568 0.015303159 0.61000127 1.0879084e-38
0.74540448 0.015254098 0.61000133 1.0879084e-38
0.75474203 0.015210588 0.61000144 1.0879084e-38
0.76420659 0.015166486 0.6100015 1.0879084e-38
0.77517128 0.015115397 0.61000156 1.0879084e-38
0.78489763 0.015070077 0.61000156 1.0879084e-38
0.79475921 0.015024123 0.61000162 1.0879084e-38
0.80474609 0.014977588 0.61000168 1.0879084e-38
0.8148737 0.014930399 0.61000168 1.0879084e-38
0.82513148 0.0148826 0.61000186 1.0879084e-38
0.83403802 0.014841101 0.61000192 1.0879084e-38
0.84456474 0.01479205 0.61000186 1.0879084e-38
0.85522932 0.014742359 0.6100021 1.0879084e-38
0.86449116 0.014699201 0.61000216 1.0879084e-38
0.56523073 0.025294121 0.61058599 1.0694332e-38
0.57312697 0.027448941 0.61110705 1.0691452e-38
0.69640696 0.026421588 0.61000103 1.0879084e-38
0.70418811 0.024808805 0.61000091 1.0879084e-38
0.71427065 0.024828942 0.61000091 1.0879084e-38
0.72449875 0.024849366 0.61000097 1.0879084e-38
0.73487568 0.024870092 0.61000127 1.0879084e-38
0.74540454 0.024891116 0.61000139 1.0879084e-38
0.75474191 0.024909765 0.61000144 1.0879084e-38
0.76420647 0.024928665 0.61000144 1.0879084e-38
0.77517116 0.02495056 0.61000156 1.0879084e-38
0.78489769 0.024969984 0.61000156 1.0879084e-38
0.79475921 0.024989678 0.61000156 1.0879084e-38
0.80474609 0.025009621 0.61000162 1.0879084e-38
0.8148737 0.025029842 0.61000162 1.0879084e-38
0.8251316 0.025050331 0.61000186 1.0879084e-38
0.83403802 0.025068112 0.61000192 1.0879084e-38
0.84456462 0.025089135 0.61000186 1.0879084e-38
0.85522926 0.025110435 0.61000198 1.0879084e-38
0.86449128 0.025128931 0.61000216 1.0879084e-38
0.549389 0.031165455 0.61000001 1.0786889e-38
0.57570332 0.03550078 0.61061919 1.0786889e-38
0.5834102 0.03809011 0.61246395 1.1063115e-38
0.68566382 0.03770528 0.61000085 1.0786889e-38
0.6942479 0.035015095 0.61000079 1.0786889e-38
0.70412093 0.03515777 0.61001229 1.0786889e-38
0.71427065 0.035201691 0.61000091 1.0879084e-38
0.72431499 0.034616265 0.61000127 1.0879084e-38
0.73487568 0.034437019 0.61000127 1.0879084e-38
0.74540448 0.034528136 0.61000139 1.0879084e-38
0.75474203 0.034608938 0.61000144 1.0879084e-38
0.76420653 0.034690835 0.6100015 1.0879084e-38
0.77517122 0.034785725 0.61000156 1.0879084e-38
0.78489769 0.034869891 0.61000156 1.0879084e-38
0.79475915 0.03495523 0.61000162 1.0879084e-38
0.80474609 0.035041649 0.61000162 1.0879084e-38
0.8148737 0.03512929 0.61000162 1.0879084e-38
0.82513154 0.035218056 0.61000186 1.0879084e-38
0.83403802 0.035295133 0.61000192 1.0879084e-38
0.84456474 0.03538622 0.61000186 1.0879084e-38
0.85522926 0.035478514 0.61000216 1.0879084e-38
0.86449128 0.03555866 0.61000216 1.0879084e-38
0.57554621 0.045162823 0.61000001 1.0786889e-38
0.58543158 0.044543028 0.61030978 1.0786889e-38
0.59399748 0.045764886 0.6103819 1.0786889e-38
0.60432029 0.047699429 0.61000025 1.0786889e-38
0.61510843 0.049186051 0.61000037 1.0786889e-38
0.62506676 0.049391542 0.61000049 1.0786889e-38
0.635171 0.049600046 0.61000049 1.0786889e-38
0.64428514 0.049788125 0.61000061 1.0786889e-38
0.65119874 0.049930789 0.61000067 1.0786889e-38
0.66761929 0.048445787 0.61000073 1.0786889e-38
0.67564023 0.045978088 0.61000067 1.0786889e-38
0.68444735 0.045078136 0.61000073 1.0786889e-38
0.69424808 0.045241229 0.61000085 1.0786889e-38
0.70418805 0.045406651 0.61000091 1.0786889e-38
0.71427053 0.045574442 0.61000097 1.0786889e-38
0.7246666 0.045003463 0.61000103 1.0786889e-38
0.73487568 0.044960648 0.61000133 1.0786889e-38
0.74523139 0.044916019 0.61000139 1.0786889e-38
0.75474191 0.044308115 0.61000144 1.0786889e-38
0.76420653 0.044453014 0.6100015 1.0786889e-38
0.77517116 0.044620894 0.61000156 1.0786889e-38
0.78489774 0.044769786 0.61000156 1.0786889e-38
0.79475915 0.044920791 0.61000162 1.0786889e-38
0.80474627 0.045073688 0.61000168 1.0879084e-38
0.81487387 0.045228738 0.61000168 1.0879084e-38
0.82513165 0.045385785 0.61000186 1.0879084e-38
0.83403802 0.04552215 0.61000192 1.0879084e-38
0.84456462 0.045683313 0.61000186 1.0879084e-38
0.85500997 0.045546412 0.6100021 1.0879084e-38
0.86449128 0.044945419 0.6100021 1.0879084e-38
0.33755133 0.055901673 0.61840415 0
0.50894254 0.052955765 0.61970311 1.0786889e-38
0.56523806 0.055448782 0.61000001 1.0786889e-38
0.57584715 0.054477923 0.61000013 1.0786889e-38
0.58506912 0.054564986 0.61000037 1.0786889e-38
0.59457684 0.054805495 0.61000043 1.0786889e-38
0.60530388 0.055076826 0.61000043 1.0786889e-38
0.61510843 0.055324834 0.61000055 1.0786889e-38
0.6248278 0.055254314 0.61000055 1.0786889e-38
0.63517112 0.054941993 0.61000055 1.0786889e-38
0.6442852 0.055166472 0.61000061 1.0786889e-38
0.65494061 0.054847203 0.61000067 1.0786889e-38
0.66525322 0.054772556 0.61000067 1.0786889e-38
0.67478353 0.055000931 0.61000067 1.0786889e-38
0.68444729 0.055232521 0.61000073 1.0786889e-38
0.69424784 0.054537721 0.61000085 1.0786889e-38
0.70418805 0.054769307 0.61000091 1.0786889e-38
0.71427059 0.055004217 0.61000097 1.0786889e-38
0.72449875 0.055242509 0.61000121 1.0786889e-38
0.73487568 0.055484273 0.61000127 1.0786889e-38
0.74559414 0.055457894 0.61000139 1.0786889e-38
0.75474191 0.054977197 0.61000144 1.0786889e-38
0.76401246 0.054489072 0.61000144 1.0786889e-38
0.77517116 0.054456044 0.6100015 1.0786889e-38
0.7848978 0.054669704 0.61000156 1.0786889e-38
0.79475915 0.054886334 0.61000162 1.0786889e-38
0.80474621 0.055105709 0.61000162 1.0786889e-38
0.81487381 0.055328183 0.61000162 1.0786889e-38
0.82513165 0.055553522 0.61000186 1.0786889e-38
0.83403808 0.055749159 0.61000192 1.0786889e-38
0.84429789 0.055246979 0.61000192 1.0786889e-38
0.85546559 0.054783329 0.61000204 1.0786889e-38
0.8644914 0.054332171 0.61000216 1.0786889e-38
0.47812042 0.063116342 0.61391562 1.0786889e-38
0.57570487 0.064536996 0.61000031 1.0786889e-38
0.58506912 0.064848669 0.61000037 1.0786889e-38
0.59457672 0.06516511 0.61000043 1.0786889e-38
0.60515451 0.065366596 0.61000043 1.0786889e-38
0.61510837 0.064971492 0.61000049 1.0786889e-38
0.62531441 0.064910688 0.61000055 1.0786889e-38
0.63517112 0.064735554 0.61000055 1.0786889e-38
0.6442852 0.065026768 0.61000061 1.0786889e-38
0.65453029 0.06519784 0.61000067 1.0786889e-38
0.66525328 0.064786382 0.61000067 1.0786889e-38
0.67478353 0.065084562 0.61000073 1.0786889e-38
0.68444735 0.065386891 0.61000073 1.0786889e-38
0.69424814 0.064763859 0.61000079 1.0786889e-38
0.70418811 0.065068223 0.61000085 1.0786889e-38
0.71408945 0.064697266 0.61000097 1.0786889e-38
0.72449881 0.064740367 0.61000097 1.0786889e-38
0.73487568 0.065051205 0.61000127 1.0786889e-38
0.7454046 0.065366596 0.61000139 1.0786889e-38
0.75474197 0.065646298 0.61000144 1.0786889e-38
0.76438367 0.0651704 0.6100015 1.0786889e-38
0.77517122 0.064291202 0.61000156 1.0786889e-38
0.7848978 0.064569615 0.61000156 1.0786889e-38
0.79475921 0.064851888 0.61000156 1.0786889e-38
0.80474609 0.065137751 0.61000162 1.0786889e-38
0.8148737 0.065427631 0.61000168 1.0786889e-38
0.8251316 0.065721244 0.6100018 1.0786889e-38
0.83380854 0.06533964 0.61000198 1.0786889e-38
0.84480333 0.06444072 0.61000186 1.0786889e-38
0.85522938 0.064509124 0.6100021 1.0786889e-38
0.86449116 0.064761899 0.61000216 1.0786889e-38
0.40952551 0.07962057 0.61982143 1.0786889e-38
0.57558435 0.074661471 0.6100027 1.0786889e-38
0.58506918 0.075132348 0.61000037 1.0786889e-38
0.59442979 0.075369336 0.61000043 1.0786889e-38
0.60547054 0.074902244 0.61000049 1.0786889e-38
0.61510837 0.074618161 0.61000055 1.0786889e-38
0.6250667 0.07501588 0.61000055 1.0786889e-38
0.6350233 0.075219505 0.61000055 1.0786889e-38
0.6442852 0.074887075 0.61000061 1.0786889e-38
0.65487069 0.075093634 0.61000067 1.0786889e-38
0.66525322 0.074800216 0.61000067 1.0786889e-38
0.67478353 0.07516817 0.61000067 1.0786889e-38
0.68444735 0.074618146 0.61000079 1.0786889e-38
0.69424802 0.074990012 0.61000085 1.0786889e-38
0.70418805 0.075367153 0.61000091 1.0786889e-38
0.71443594 0.075017348 0.61000097 1.0786889e-38
0.72445774 0.074867621 0.61030555 1.0786889e-38
0.73487568 0.074618138 0.61000127 1.0786889e-38
0.74540454 0.075003617 0.61000139 1.0786889e-38
0.75474191 0.075345472 0.61000144 1.0786889e-38
0.76420635 0.075691968 0.61000144 1.0786889e-38
0.77492023 0.074652985 0.61000156 1.0786889e-38
0.7847783 0.074399553 0.6104452 1.0786889e-38
0.79475921 0.074817427 0.61000156 1.0786889e-38
0.80474627 0.075169779 0.61000168 1.0786889e-38
0.8148737 0.075527079 0.61000162 1.0786889e-38
0.82492065 0.075590469 0.61000192 1.0786889e-38
0.83425128 0.074456654 0.61000192 1.0786889e-38
0.84456462 0.074515156 0.61000186 1.0786889e-38
0.85522932 0.074877195 0.6100021 1.0786889e-38
0.86449128 0.075191632 0.61000216 1.0786889e-38
0.35945144 0.088523164 0.61747438 7.8366285e-39
0.54662013 0.081362747 0.61640465 1.0786889e-38
0.57570511 0.084954754 0.61000025 1.0786889e-38
0.58506912 0.085416026 0.61000037 1.0786889e-38
0.59457725 0.085019819 0.61000037 1.0786889e-38
0.605304 0.084671885 0.61000049 1.0786889e-38
0.61510831 0.085141785 0.61000055 1.0786889e-38
0.6248191 0.085115485 0.61000055 1.0786889e-38
0.63533294 0.084965631 0.61000055 1.0786889e-38
0.64428514 0.084747352 0.61000061 1.0786889e-38
0.65469128 0.08523225 0.61000061 1.0786889e-38
0.66525328 0.084814049 0.61000067 1.0786889e-38
0.67478353 0.085251771 0.61000073 1.0786889e-38
0.68444735 0.084772527 0.61000067 1.0786889e-38
0.69408685 0.085006215 0.61000079 1.0786889e-38
0.70418805 0.084729813 0.61000091 1.0786889e-38
0.71427065 0.085179478 0.61000091 1.0786889e-38
0.72468299 0.08537177 0.61000115 1.0786889e-38
0.73470503 0.084925719 0.61000133 1.0786889e-38
0.7454046 0.084640622 0.61000133 1.0786889e-38
0.75474191 0.085044645 0.61000144 1.0786889e-38
0.76420641 0.085454151 0.6100015 1.0786889e-38
0.77523685 0.085180476 0.6100015 1.0786889e-38
0.78489763 0.084369428 0.61000156 1.0786889e-38
0.79475927 0.08478298 0.61000156 1.0786889e-38
0.80474603 0.085201815 0.61000162 1.0786889e-38
0.8148737 0.085626528 0.61000162 1.0786889e-38
0.82513183 0.085038543 0.61000192 1.0786889e-38
0.83403808 0.084384806 0.61000192 1.0786889e-38
0.84456474 0.084812239 0.61000186 1.0786889e-38
0.85546434 0.085340403 0.61006725 1.0786889e-38
0.86449116 0.085621372 0.61000216 1.0786889e-38
0.47253573 0.096357368 0.61885577 1.0786889e-38
0.5310486 0.093546078 0.61675984 1.0786889e-38
0.57570487 0.095163651 0.61000031 1.0786889e-38
0.5848785 0.095298618 0.61000037 1.0786889e-38
0.59472322 0.094673932 0.61000043 1.0786889e-38
0.60530388 0.095117189 0.61000043 1.0786889e-38
0.61490875 0.095254973 0.61000055 1.0786889e-38
0.62530529 0.094782844 0.61000055 1.0786889e-38
0.63517112 0.095006563 0.61000055 1.0786889e-38
0.64407665 0.095084526 0.61000055 1.0786889e-38
0.65469116 0.095168754 0.61000061 1.0786889e-38
0.66525322 0.094827883 0.61000067 1.0786889e-38
0.67462689 0.09512724 0.61000067 1.0786889e-38
0.68444741 0.094926901 0.61000073 1.0786889e-38
0.69442433 0.095185243 0.61000085 1.0786889e-38
0.70418805 0.095028736 0.61000085 1.0786889e-38
0.71427053 0.094609253 0.61000097 1.0786889e-38
0.72449875 0.095133506 0.61000121 1.0786889e-38
0.73506254 0.09540087 0.61000127 1.0786889e-38
0.74516356 0.094790317 0.61000133 1.0786889e-38
0.75474203 0.094743825 0.61000144 1.0786889e-38
0.76420647 0.095216319 0.6100015 1.0786889e-38
0.77536875 0.095491782 0.61000156 1.0786889e-38
0.78489774 0.09426935 0.61000156 1.0786889e-38
0.79475921 0.094748542 0.61000156 1.0786889e-38
0.80474627 0.095233843 0.61000168 1.0786889e-38
0.81486785 0.095838107 0.61015451 1.0786889e-38
0.82534236 0.094490804 0.61000186 1.0786889e-38
0.83403808 0.094611831 0.61000192 1.0786889e-38
0.84456474 0.095109329 0.61000186 1.0786889e-38
0.85522926 0.095613346 0.61000198 1.0786889e-38
0.86449128 0.095008112 0.6100021 1.0786889e-38
0.33231729 0.10061243 0.61524332 0
0.50089186 0.10937721 0.61352855 1.0786889e-38
0.57570481 0.1053725 0.61000031 1.0786889e-38
0.5852598 0.10467052 0.61000037 1.0786889e-38
0.59457684 0.104877 0.61000043 1.0786889e-38
0.60507202 0.10523604 0.61000049 1.0786889e-38
0.61530799 0.10484555 0.61000055 1.0786889e-38
0.62506658 0.10505823 0.61000055 1.0786889e-38
0.63500965 0.10504387 0.61000055 1.0786889e-38
0.64449364 0.10488749 0.61000055 1.0786889e-38
0.6546911 0.10510523 0.61000061 1.0786889e-38
0.66525328 0.10484171 0.61000067 1.0786889e-38
0.67495507 0.1051668 0.61000067 1.0786889e-38
0.68444729 0.10508126 0.61000079 1.0786889e-38
0.6942479 0.10473877 0.61000073 1.0786889e-38
0.70418811 0.10532764 0.61000091 1.0786889e-38
0.71427059 0.10498201 0.61000085 1.0786889e-38
0.72449875 0.10463136 0.61000115 1.0786889e-38
0.73487568 0.10523231 0.61000127 1.0786889e-38
0.74568617 0.10516551 0.61008567 1.0786889e-38
0.75474209 0.10444298 0.61000144 1.0786889e-38
0.76420635 0.10497849 0.61000144 1.0786889e-38
0.77517122 0.10559889 0.61000156 1.0786889e-38
0.78472292 0.10453014 0.61000156 1.0786889e-38
0.79475915 0.1047141 0.61000156 1.0786889e-38
0.80474609 0.10526587 0.61000168 1.0786889e-38
0.81464344 0.10559946 0.61000162 1.0786889e-38
0.82513154 0.10435862 0.6100018 1.0786889e-38
0.83403814 0.10483884 0.61000192 1.0786889e-38
0.84456462 0.10540642 0.61000186 1.0786889e-38
0.8549934 0.10533006 0.61000204 1.0786889e-38
0.86449128 0.10439488 0.61000216 1.0786889e-38
0.3929081 0.11444712 0.61432171 1.0694693e-38
0.4582319 0.11667595 0.61816579 1.0786889e-38
0.57556218 0.11542378 0.61000037 1.0786889e-38
0.58506906 0.11455312 0.61000037 1.0786889e-38
0.59457666 0.11523664 0.61000043 1.0786889e-38
0.60554439 0.11476666 0.61000037 1.0786889e-38
0.61510843 0.11495873 0.61000055 1.0786889e-38
0.62481916 0.11515222 0.61000055 1.0786889e-38
0.6353184 0.11479696 0.61000055 1.0786889e-38
0.64428514 0.11522467 0.61000055 1.0786889e-38
0.6546911 0.11504173 0.61000067 1.0786889e-38
0.66525328 0.11485554 0.61000067 1.0786889e-38
0.67461234 0.11483565 0.61000073 1.0786889e-38
0.68444735 0.11523564 0.61000073 1.0786889e-38
0.69424796 0.11496489 0.61000079 1.0786889e-38
0.70418805 0.1146903 0.61000091 1.0786889e-38
0.71427053 0.11535475 0.61000097 1.0786889e-38
0.72433066 0.11486099 0.61000109 1.0786889e-38
0.73487568 0.11479925 0.61000127 1.0786889e-38
0.7454046 0.11547909 0.61000133 1.0786889e-38
0.75458395 0.11481618 0.61000144 1.0786889e-38
0.76425332 0.11491502 0.61043334 1.0786889e-38
0.77517122 0.11543405 0.61000156 1.0786889e-38
0.78489774 0.11472788 0.61000156 1.0786889e-38
0.79475915 0.11467965 0.61000162 1.0786889e-38
0.80474621 0.1152979 0.61000168 1.0786889e-38
0.81479746 0.11517423 0.61000168 1.0786889e-38
0.82513154 0.11452635 0.61000186 1.0786889e-38
0.83403814 0.11506586 0.61000192 1.0786889e-38
0.8443253 0.11547159 0.61000186 1.0786889e-38
0.85544842 0.11458451 0.61000204 1.0786889e-38
0.86449116 0.11482462 0.61000216 1.0786889e-38
0.57563156 0.12511443 0.61000007 1.0786889e-38
0.58506912 0.1248368 0.61000037 1.0786889e-38
0.59434873 0.12526897 0.61000043 1.0786889e-38
0.605304 0.12471225 0.61000043 1.0786889e-38
0.61496502 0.12527998 0.61000055 1.0786889e-38
0.62530529 0.12483057 0.61000055 1.0786889e-38
0.63502342 0.12507215 0.61000055 1.0786889e-38
0.6442852 0.12508497 0.61000055 1.0786889e-38
0.65469116 0.12497822 0.61000061 1.0786889e-38
0.66525322 0.12486939 0.61000067 1.0786889e-38
0.67493987 0.12487996 0.61000067 1.0786889e-38
0.68422616 0.1249532 0.61000073 1.0786889e-38
0.69424784 0.12519105 0.61000085 1.0786889e-38
0.70418805 0.12498924 0.61000085 1.0786889e-38
0.71427065 0.12478454 0.61000091 1.0786889e-38
0.72468305 0.12526791 0.61000115 1.0786889e-38
0.73468924 0.1246255 0.61000127 1.0786889e-38
0.74540472 0.12511609 0.61000133 1.0786889e-38
0.75490987 0.12542875 0.61000144 1.0786889e-38
0.76420635 0.12450285 0.61000144 1.0786889e-38
0.77517116 0.1252692 0.6100015 1.0786889e-38
0.78489751 0.12495787 0.61000156 1.0786889e-38
0.79475915 0.12464519 0.61000156 1.0786889e-38
0.80474609 0.12532993 0.61000162 1.0786889e-38
0.8148737 0.12501241 0.61000162 1.0786889e-38
0.82513165 0.12469408 0.61000186 1.0786889e-38
0.83403802 0.12529288 0.61000192 1.0786889e-38
0.84456527 0.12496923 0.61000186 1.0786889e-38
0.85522938 0.12464397 0.61000198 1.0786889e-38
0.86449128 0.12525432 0.61000216 1.0786889e-38
0.5757764 0.13480127 0.61000013 1.0786889e-38
0.58506912 0.13512045 0.61000037 1.0786889e-38
0.59465319 0.13491274 0.61000043 1.0786889e-38
0.605304 0.13515757 0.61000043 1.0786889e-38
0.61526537 0.13489133 0.61000049 1.0786889e-38
0.6250667 0.13510053 0.61000055 1.0786889e-38
0.63533294 0.13482982 0.61000055 1.0786889e-38
0.64428526 0.13494526 0.61000055 1.0786889e-38
0.65451217 0.13510758 0.61000061 1.0786889e-38
0.66525322 0.13488321 0.61000067 1.0786889e-38
0.67461234 0.13500036 0.61000073 1.0786889e-38
0.68466848 0.1350581 0.61000067 1.0786889e-38
0.69402361 0.13497566 0.61000085 1.0786889e-38
0.70418811 0.13528815 0.61000091 1.0786889e-38
0.71410483 0.13493848 0.61000091 1.0786889e-38
0.72449869 0.1350245 0.61000109 1.0786889e-38
0.73504591 0.13511059 0.61000133 1.0786889e-38
0.74540472 0.13475314 0.61000133 1.0786889e-38
0.75474197 0.13548034 0.61000144 1.0786889e-38
0.76401228 0.13452831 0.61000144 1.0786889e-38
0.77517122 0.13510439 0.6100015 1.0786889e-38
0.78489763 0.1351877 0.61000156 1.0786889e-38
0.79475915 0.13461074 0.61000156 1.0786889e-38
0.80474609 0.13536197 0.61000162 1.0786889e-38
0.81495076 0.13485199 0.61000168 1.0786889e-38
0.82513165 0.1348618 0.61000174 1.0786889e-38
0.83403796 0.13551989 0.61000192 1.0786889e-38
0.84480327 0.13447171 0.61000186 1.0786889e-38
0.85522932 0.13501205 0.61000198 1.0786889e-38
0.86426926 0.13536939 0.6100021 1.0786889e-38
0.39263332 0.14693134 0.61603266 1.0786889e-38
0.57584721 0.14466639 0.61000025 1.0786889e-38
0.58493221 0.14520429 0.61000037 1.0786889e-38
0.59472328 0.1447511 0.61000043 1.0786889e-38
0.60507208 0.1452693 0.61000043 1.0786889e-38
0.61510843 0.14477569 0.61000055 1.0786889e-38
0.62481922 0.14518894 0.61000055 1.0786889e-38
0.63517112 0.14486472 0.61000055 1.0786889e-38
0.64412147 0.14504607 0.61000055 1.0786889e-38
0.6548515 0.14502095 0.61000067 1.0786889e-38
0.66525316 0.14489706 0.61000067 1.0786889e-38
0.67493975 0.14504947 0.61000067 1.0786889e-38
0.68427378 0.14502336 0.61000073 1.0786889e-38
0.69447213 0.14515521 0.61000085 1.0786889e-38
0.70400953 0.14490202 0.61000091 1.0786889e-38
0.71445215 0.14527571 0.61000097 1.0786889e-38
0.72431499 0.14477721 0.61000109 1.0786889e-38
0.73494744 0.14528748 0.61014682 1.0786889e-38
0.74521542 0.14464876 0.61000133 1.0786889e-38
0.75474209 0.14517953 0.61000144 1.0786889e-38
0.76414144 0.14476402 0.6100015 1.0786889e-38
0.77517134 0.14493954 0.6100015 1.0786889e-38
0.78507274 0.14539146 0.61000156 1.0786889e-38
0.79475915 0.1445763 0.61000156 1.0786889e-38
0.80474609 0.145394 0.61000162 1.0786889e-38
0.81487387 0.14470682 0.61000168 1.0786889e-38
0.8251316 0.14502954 0.61000174 1.0786889e-38
0.83382457 0.14543693 0.61000198 1.0786889e-38
0.84456474 0.14453533 0.61000186 1.0786889e-38
0.85522932 0.14538012 0.61000198 1.0786889e-38
0.86473042 0.14468767 0.6100021 1.0786889e-38
0.35129449 0.15205452 0.6152516 1.0694693e-38
0.43790278 0.15049663 0.61081243 1.0786889e-38
0.57570499 0.15471543 0.61000019 1.0786889e-38
0.58502364 0.15504846 0.61000037 1.0786889e-38
0.59457678 0.15494852 0.61000043 1.0786889e-38
0.60538161 0.15499759 0.61000049 1.0786889e-38
0.61496508 0.1550937 0.61000055 1.0786889e-38
0.62530529 0.1548783 0.61000055 1.0786889e-38
0.63496536 0.15512267 0.61000055 1.0786889e-38
0.64443451 0.15487497 0.61000055 1.0786889e-38
0.65443242 0.15516284 0.61000061 1.0786889e-38
0.66525322 0.15491086 0.61000067 1.0786889e-38
0.67478353 0.1549204 0.61000067 1.0786889e-38
0.68460578 0.15514539 0.61000079 1.0786889e-38
0.6942479 0.15493982 0.61000085 1.0786889e-38
0.70435107 0.15516815 0.61000085 1.0786889e-38
0.71427071 0.15495981 0.61000097 1.0786889e-38
0.72449833 0.1549688 0.61000115 1.0786889e-38
0.73487568 0.15498038 0.61000127 1.0786889e-38
0.7454043 0.15498963 0.61000133 1.0786889e-38
0.75474203 0.15487871 0.61000144 1.0786889e-38
0.76427108 0.15500236 0.6100015 1.0786889e-38
0.77517116 0.15477471 0.6100015 1.0786889e-38
0.78489774 0.15564875 0.61000156 1.0786889e-38
0.79475921 0.15454185 0.61000156 1.0786889e-38
0.80474627 0.15542604 0.61000162 1.0786889e-38
0.81487381 0.15480627 0.61000162 1.0786889e-38
0.82513154 0.15519728 0.61000174 1.0786889e-38
0.83403832 0.15494981 0.61000198 1.0786889e-38
0.84456462 0.15483241 0.61000186 1.0786889e-38
0.85500997 0.15543255 0.61000204 1.0786889e-38
0.8644914 0.15445757 0.61000216 1.0786889e-38
0.35371369 0.16087131 0.6140368 7.7444329e-39
0.53330141 0.16544256 0.61126983 1.0786889e-38
0.57570511 0.16492429 0.61000019 1.0786889e-38
0.58511484 0.16489479 0.61000037 1.0786889e-38
0.59442973 0.16514258 0.61000043 1.0786889e-38
0.6054529 0.16491847 0.61000049 1.0786889e-38
0.61510873 0.16494483 0.61000055 1.0786889e-38
0.6249128 0.16497342 0.61000055 1.0786889e-38
0.63537687 0.16487776 0.61000055 1.0786889e-38
0.64407665 0.16499221 0.61000055 1.0786889e-38
0.65494066 0.16507223 0.61000061 1.0786889e-38
0.66525328 0.16492471 0.61000067 1.0786889e-38
0.67478365 0.165004 0.61000067 1.0786889e-38
0.68444735 0.16508442 0.61000073 1.0786889e-38
0.69408673 0.16494682 0.61000079 1.0786889e-38
0.70418805 0.16524866 0.61000091 1.0786889e-38
0.7140398 0.1648798 0.61000097 1.0786889e-38
0.72468299 0.16516407 0.61000109 1.0786889e-38
0.73468924 0.16480139 0.61000127 1.0786889e-38
0.74559426 0.1653343 0.61000133 1.0786889e-38
0.75474209 0.16457787 0.61000144 1.0786889e-38
0.76440096 0.16524333 0.61000144 1.0786889e-38
0.77517116 0.16460988 0.6100015 1.0786889e-38
0.78489769 0.1655487 0.61000156 1.0786889e-38
0.79475921 0.1645074 0.61000156 1.0786889e-38
0.80474633 0.16545805 0.61000162 1.0786889e-38
0.81510329 0.16463578 0.61000162 1.0786889e-38
0.8251316 0.165365 0.61000186 1.0786889e-38
0.83425134 0.16446689 0.61000198 1.0786889e-38
0.84456474 0.1651295 0.61000186 1.0786889e-38
0.85522968 0.16507804 0.61000204 1.0786889e-38
0.86449128 0.16488732 0.61000216 1.0786889e-38
0.57570499 0.17513318 0.61000025 1.0786889e-38
0.58520585 0.17474328 0.61000037 1.0786889e-38
0.59450352 0.1751516 0.61000043 1.0786889e-38
0.60515457 0.17502986 0.61000043 1.0786889e-38
0.61525142 0.17479938 0.61000055 1.0786889e-38
0.62498754 0.17504109 0.61000055 1.0786889e-38
0.63517118 0.17513573 0.61000055 1.0786889e-38
0.64449388 0.17481683 0.61000055 1.0786889e-38
0.65443236 0.17503205 0.61000061 1.0786889e-38
0.66525328 0.17493856 0.61000067 1.0786889e-38
0.67478341 0.17508763 0.61000067 1.0786889e-38
0.68428844 0.17502002 0.61000073 1.0786889e-38
0.69442451 0.17514516 0.61000091 1.0786889e-38
0.70400953 0.17485875 0.61000091 1.0786889e-38
0.71450132 0.1752151 0.61000097 1.0786889e-38
0.72449881 0.17491551 0.61000097 1.0786889e-38
0.73487526 0.17506969 0.61000133 1.0786889e-38
0.7454046 0.17522863 0.61000133 1.0786889e-38
0.75457424 0.17462255 0.61000144 1.0786889e-38
0.76420647 0.17526616 0.6100015 1.0786889e-38
0.77497435 0.17470492 0.6100015 1.0786889e-38
0.78489774 0.17544861 0.61000156 1.0786889e-38
0.79475915 0.17447296 0.61000156 1.0786889e-38
0.80474633 0.1754901 0.61000162 1.0786889e-38
0.81487358 0.17450166 0.61000162 1.0786889e-38
0.8251316 0.17553271 0.6100018 1.0786889e-38
0.8340382 0.17438254 0.61000192 1.0786889e-38
0.8443253 0.17518543 0.61000186 1.0786889e-38
0.85544842 0.17472783 0.61000204 1.0786889e-38
0.86449116 0.17531703 0.61000216 1.0786889e-38
0.35440871 0.18698885 0.61283791 1.0694693e-38
0.57556218 0.18517666 0.61000013 1.0786889e-38
0.58506912 0.18482493 0.61000037 1.0786889e-38
0.59465313 0.1849872 0.61000043 1.0786889e-38
0.6052295 0.18512222 0.61000043 1.0786889e-38
0.61510843 0.18511628 0.61000055 1.0786889e-38
0.62530535 0.18492605 0.61000055 1.0786889e-38
0.63500965 0.18516335 0.61000055 1.0786889e-38
0.64413548 0.18492962 0.61000055 1.0786889e-38
0.65494061 0.18494889 0.61000061 1.0786889e-38
0.66511798 0.18530993 0.61037934 1.0786889e-38
0.67462689 0.18495288 0.61000067 1.0786889e-38
0.68462127 0.18514922 0.61000079 1.0786889e-38
0.69407183 0.18493299 0.61000085 1.0786889e-38
0.70418769 0.18490906 0.61000085 1.0786889e-38
0.71427065 0.1851351 0.61000097 1.0786889e-38
0.72426456 0.18490385 0.61000115 1.0786889e-38
0.73506254 0.18534172 0.61000127 1.0786889e-38
0.7454046 0.18486562 0.61000133 1.0786889e-38
0.75474191 0.184945 0.61000144 1.0786889e-38
0.76420653 0.18502834 0.6100015 1.0786889e-38
0.77517116 0.18477057 0.6100015 1.0786889e-38
0.78489769 0.18534851 0.61000156 1.0786889e-38
0.79455686 0.18470049 0.61000156 1.0786889e-38
0.80474627 0.18552212 0.61000162 1.0786889e-38
0.8148737 0.1846011 0.61000168 1.0786889e-38
0.82496226 0.18558164 0.61033762 1.0786889e-38
0.83403808 0.18460958 0.61000186 1.0786889e-38
0.84448522 0.18495473 0.61000186 1.0786889e-38
0.85522932 0.18477884 0.61000198 1.0786889e-38
0.86426926 0.185425 0.6100021 1.0786889e-38
0.34771782 0.19297117 0.61260992 7.7444329e-39
0.38617429 0.19313857 0.61362654 1.0694693e-38
0.57563376 0.19504118 0.61000025 1.0786889e-38
0.58506912 0.19510859 0.61000037 1.0786889e-38
0.59472328 0.19482832 0.61000043 1.0786889e-38
0.60538149 0.19504033 0.61000043 1.0786889e-38
0.61490875 0.19521427 0.61000049 1.0786889e-38
0.6249128 0.19501227 0.61000055 1.0786889e-38
0.63531858 0.19493493 0.61000055 1.0786889e-38
0.64428562 0.19500227 0.61000055 1.0786889e-38
0.65444148 0.19508164 0.61000061 1.0786889e-38
0.66540736 0.19518311 0.61000067 1.0786889e-38
0.67495501 0.19501387 0.61000067 1.0786889e-38
0.68427378 0.19486588 0.61000079 1.0786889e-38
0.69424766 0.19491357 0.61000085 1.0786889e-38
0.7043671 0.19496301 0.61000091 1.0786889e-38
0.71408951 0.19481148 0.61000091 1.0786889e-38
0.72455984 0.19509313 0.61000109 1.0786889e-38
0.73487568 0.19516148 0.61000127 1.0786889e-38
0.74521554 0.19475469 0.61000133 1.0786889e-38
0.75490999 0.19527085 0.61000144 1.0786889e-38
0.76420647 0.19479051 0.61000144 1.0786889e-38
0.77510536 0.19485544 0.6100015 1.0786889e-38
0.78489769 0.1952484 0.61000156 1.0786889e-38
0.79475921 0.19490094 0.61000156 1.0786889e-38
0.80474621 0.19555417 0.61000162 1.0786889e-38
0.81487381 0.19470055 0.61000168 1.0786889e-38
0.82513154 0.19518901 0.6100018 1.0786889e-38
0.83403808 0.19483657 0.61000192 1.0786889e-38
0.84456462 0.19498904 0.61000186 1.0786889e-38
0.85522932 0.19514689 0.61000198 1.0786889e-38
0.86449146 0.19513209 0.6100021 1.0786889e-38
0.57570511 0.2049074 0.61000001 1.0786889e-38
0.58493233 0.20518601 0.61000037 1.0786889e-38
0.59457678 0.20502003 0.61000043 1.0786889e-38
0.6054529 0.20496339 0.61000049 1.0786889e-38
0.61530793 0.20483518 0.61000043 1.0786889e-38
0.62498754 0.20508166 0.61000055 1.0786889e-38
0.63496542 0.20497316 0.61000055 1.0786889e-38
0.644665 0.20492142 0.61016601 1.0786889e-38
0.6549502 0.205006 0.61000067 1.0786889e-38
0.66508442 0.20521691 0.61000067 1.0786889e-38
0.67456537 0.20489202 0.61000067 1.0786889e-38
0.68460578 0.20499982 0.61000079 1.0786889e-38
0.69442439 0.2048977 0.61000079 1.0786889e-38
0.70400953 0.20481543 0.61000091 1.0786889e-38
0.71427017 0.20493637 0.61000097 1.0786889e-38
0.72468293 0.20506021 0.61000127 1.0786889e-38
0.73468924 0.2049773 0.61000127 1.0786889e-38
0.74534136 0.20486443 0.61000133 1.0786889e-38
0.75474203 0.20531441 0.61000144 1.0786889e-38
0.7640124 0.20480667 0.6100015 1.0786889e-38
0.77517128 0.20493221 0.6100015 1.0786889e-38
0.78489769 0.20514831 0.61000156 1.0786889e-38
0.79475915 0.20486648 0.61000156 1.0786889e-38
0.80474639 0.20558619 0.61000162 1.0786889e-38
0.8148737 0.20480001 0.61000168 1.0786889e-38
0.82513189 0.20501778 0.61000186 1.0786889e-38
0.83403802 0.20506358 0.61000192 1.0786889e-38
0.84464467 0.20502479 0.61000186 1.0786889e-38
0.85500997 0.20519231 0.61000204 1.0786889e-38
0.86471301 0.20484351 0.6100021 1.0786889e-38
0.57570487 0.21494614 0.61000007 1.0786889e-38
0.58502376 0.21503444 0.61000037 1.0786889e-38
0.59434855 0.21503659 0.61000043 1.0786889e-38
0.60515457 0.21506563 0.61000049 1.0786889e-38
0.61510837 0.21493323 0.61000055 1.0786889e-38
0.62530535 0.21497381 0.61000055 1.0786889e-38
0.63537687 0.21474357 0.61000055 1.0786889e-38
0.64407665 0.21518229 0.61000055 1.0786889e-38
0.65444148 0.21495099 0.61000067 1.0786889e-38
0.66525292 0.21499276 0.61000067 1.0786889e-38
0.67500156 0.21495186 0.61000067 1.0786889e-38
0.68427378 0.21517207 0.61000079 1.0786889e-38
0.69402367 0.21491265 0.61000085 1.0786889e-38
0.70418769 0.21486954 0.61000085 1.0786889e-38
0.71445209 0.215065 0.61000091 1.0786889e-38
0.72431499 0.21505234 0.61000127 1.0786889e-38
0.73481321 0.21501441 0.61000127 1.0786889e-38
0.74546748 0.21497674 0.61000133 1.0786889e-38
0.75474209 0.21501356 0.61000144 1.0786889e-38
0.76414144 0.21504857 0.61000144 1.0786889e-38
0.77523685 0.21501039 0.6100015 1.0786889e-38
0.78489769 0.21504821 0.61000156 1.0786889e-38
0.79475915 0.21483204 0.61000162 1.0786889e-38
0.80454081 0.21530464 0.61000162 1.0786889e-38
0.81487381 0.21489942 0.61000168 1.0786889e-38
0.8251316 0.21484663 0.61000186 1.0786889e-38
0.83403814 0.21529058 0.61000192 1.0786889e-38
0.84480333 0.21480139 0.61000186 1.0786889e-38
0.85522956 0.21484481 0.61000204 1.0786889e-38
0.86449116 0.21495001 0.61000216 1.0786889e-38
0.40756086 0.22570664 0.61981922 4.7912833e-39
0.56539273 0.22477259 0.6102401 1.0694693e-38
0.57577634 0.22498475 0.61000013 1.0694693e-38
0.58511484 0.22488508 0.61000037 1.0694693e-38
0.59457701 0.2248743 0.61000043 1.0694693e-38
0.60522705 0.22498623 0.61000049 1.0694693e-38
0.61490875 0.22502674 0.61000055 1.0694693e-38
0.62491274 0.22505113 0.61000055 1.0694693e-38
0.63517118 0.22499388 0.61000055 1.0694693e-38
0.64449376 0.22502246 0.61000055 1.0786889e-38
0.65477479 0.22506382 0.61000061 1.0786889e-38
0.66525364 0.22500649 0.61000067 1.0786889e-38
0.67456549 0.22505608 0.61000067 1.0786889e-38
0.68444693 0.22508641 0.61000079 1.0786889e-38
0.69447219 0.22511788 0.61000085 1.0786889e-38
0.70436704 0.22492731 0.61000091 1.0786889e-38
0.71408951 0.22498292 0.61000097 1.0786889e-38
0.72443724 0.22501785 0.61000127 1.0786889e-38
0.73500353 0.22499126 0.61029738 1.0694693e-38
0.74559432 0.22509164 0.61000133 1.0786889e-38
0.75504833 0.22477962 0.61014831 1.0786889e-38
0.76420647 0.22505145 0.6100015 1.0786889e-38
0.77517122 0.22509475 0.6100015 1.0786889e-38
0.78463221 0.22491509 0.61060673 1.0786889e-38
0.79475921 0.22479758 0.61000156 1.0786889e-38
0.80474633 0.22498019 0.61000162 1.0786889e-38
0.81487381 0.22499888 0.61000168 1.0786889e-38
0.8253423 0.22465564 0.61000192 1.0786889e-38
0.83382463 0.22519657 0.61000198 1.0786889e-38
0.84456474 0.22485261 0.61000186 1.0786889e-38
0.85522932 0.22486736 0.61000198 1.0786889e-38
0.8644914 0.22537975 0.61000216 1.0786889e-38
0.57570493 0.23502415 0.61000019 1.0694693e-38
0.58506918 0.23495682 0.61000037 1.0694693e-38
0.59465033 0.23488902 0.61000043 1.0694693e-38
0.60537869 0.23490901 0.61000043 1.0694693e-38
0.61515635 0.23488118 0.61000055 1.0694693e-38
0.62498754 0.23512217 0.61000055 1.0694693e-38
0.63496542 0.23523951 0.61000055 1.0694693e-38
0.64407659 0.23489985 0.61000055 1.0694693e-38
0.65460443 0.23500067 0.61000061 1.0694693e-38
0.66525286 0.2350204 0.61000067 1.0694693e-38
0.67500156 0.23512229 0.61000067 1.0694693e-38
0.68462133 0.23500425 0.61000073 1.0694693e-38
0.69407207 0.2351277 0.61000085 1.0694693e-38
0.70396054 0.23500775 0.61000085 1.0694693e-38
0.71420985 0.23487784 0.61000097 1.0694693e-38
0.72455984 0.23498583 0.61000109 1.0694693e-38
0.73506254 0.23509625 0.61000127 1.0694693e-38
0.74540472 0.23497812 0.61000133 1.0786889e-38
0.75457436 0.23475051 0.61000144 1.0786889e-38
0.76427108 0.23505571 0.6100015 1.0786889e-38
0.77536875 0.2351698 0.6100015 1.0786889e-38
0.78489769 0.23484802 0.61000156 1.0786889e-38
0.79475915 0.23476318 0.61000156 1.0786889e-38
0.80474633 0.2350122 0.61000162 1.0786889e-38
0.81487381 0.23509836 0.61000162 1.0786889e-38
0.82513165 0.23450555 0.61000186 1.0786889e-38
0.83403814 0.2350615 0.61000192 1.0786889e-38
0.84456474 0.2351497 0.61000186 1.0786889e-38
0.85544837 0.23487112 0.61000204 1.0786889e-38
0.86426926 0.23548058 0.6100021 1.0786889e-38
0.36148745 0.2443908 0.61825275 1.0694693e-38
0.57584721 0.2450649 0.61000019 1.0694693e-38
0.58520579 0.24502255 0.61000037 1.0694693e-38
0.5947234 0.24490546 0.61000043 1.0694693e-38
0.60545284 0.2450083 0.61000043 1.0694693e-38
0.61525148 0.24496451 0.61000055 1.0694693e-38
0.62518036 0.24514258 0.61023057 1.0694693e-38
0.63537687 0.24501924 0.61000055 1.0694693e-38
0.64433527 0.24497442 0.61000055 1.0694693e-38
0.65477484 0.24493802 0.61000061 1.0694693e-38
0.66525364 0.24503413 0.61000067 1.0694693e-38
0.67461234 0.24498978 0.61000067 1.0694693e-38
0.68422616 0.24494034 0.61000079 1.0694693e-38
0.6942476 0.24511462 0.61000085 1.0694693e-38
0.70424742 0.24506219 0.61000091 1.0694693e-38
0.71450138 0.24500678 0.61000097 1.0694693e-38
0.72468305 0.24495636 0.61000127 1.0694693e-38
0.73487568 0.24490952 0.61000127 1.0694693e-38
0.74521554 0.24486068 0.61000133 1.0694693e-38
0.75474179 0.24507987 0.61000144 1.0694693e-38
0.76420641 0.24506435 0.61000144 1.0694693e-38
0.77517134 0.24525821 0.6100015 1.0694693e-38
0.78489774 0.24474795 0.61000156 1.0694693e-38
0.79469138 0.24497946 0.61000162 1.0694693e-38
0.80474621 0.24504423 0.61000162 1.0694693e-38
0.8148737 0.2451978 0.61000168 1.0694693e-38
0.8251316 0.2446733 0.6100018 1.0694693e-38
0.83403838 0.24494757 0.61000198 1.0694693e-38
0.8443253 0.24519479 0.61000186 1.0694693e-38
0.85522938 0.24491365 0.61000198 1.0786889e-38
0.86449158 0.24519478 0.6100021 1.0786889e-38
0.40230772 0.25091282 0.6189912 1.0694693e-38
0.42284635 0.25704515 0.61823583 1.0694693e-38
0.57556212 0.25492954 0.61000007 1.0694693e-38
0.58506912 0.25509673 0.61000031 1.0694693e-38
0.59458643 0.25502798 0.61005688 1.0694693e-38
0.60507202 0.25492564 0.61000043 1.0694693e-38
0.61496508 0.25505731 0.61000055 1.0694693e-38
0.62482786 0.25491151 0.61000055 1.0694693e-38
0.63502342 0.25504509 0.61000055 1.0694693e-38
0.64428478 0.25506052 0.61000055 1.0694693e-38
0.65469062 0.25505477 0.61000061 1.0694693e-38
0.6652528 0.25504807 0.61000067 1.0694693e-38
0.67478311 0.25483871 0.61000067 1.0694693e-38
0.68449628 0.25512901 0.61037523 1.0694693e-38
0.69442427 0.25510508 0.61000079 1.0694693e-38
0.70436704 0.25489157 0.61000091 1.0694693e-38
0.71408951 0.25515434 0.61000091 1.0694693e-38
0.72431493 0.25493819 0.61000121 1.0694693e-38
0.73463815 0.2549589 0.61000133 1.0694693e-38
0.7453413 0.25497475 0.61000133 1.0694693e-38
0.75474197 0.25510231 0.61000144 1.0694693e-38
0.76440102 0.25506729 0.6100015 1.0694693e-38
0.77517128 0.25509337 0.6100015 1.0694693e-38
0.78489774 0.25464788 0.61000156 1.0694693e-38
0.79475921 0.25519204 0.61000156 1.0694693e-38
0.80474639 0.25507626 0.61000162 1.0694693e-38
0.81464368 0.2550486 0.61000168 1.0694693e-38
0.8251316 0.254841 0.61000186 1.0694693e-38
0.83403802 0.25483376 0.61000192 1.0694693e-38
0.84448534 0.25497133 0.61000186 1.0694693e-38
0.85522944 0.25528175 0.61000198 1.0694693e-38
0.86471301 0.2549133 0.6100021 1.0694693e-38
0.57570493 0.26497021 0.61000019 1.0694693e-38
0.58493227 0.26516777 0.61000025 1.0694693e-38
0.59450352 0.26492995 0.61000043 1.0694693e-38
0.60530418 0.26485178 0.61000049 1.0694693e-38
0.61506075 0.26513913 0.61000043 1.0694693e-38
0.625067 0.26498765 0.61000055 1.0694693e-38
0.63495272 0.26517838 0.6103282 1.0694693e-38
0.64428556 0.26492074 0.61000055 1.0694693e-38
0.65460831 0.26516956 0.61000067 1.0694693e-38
0.66525364 0.26506183 0.61000067 1.0694693e-38
0.67478389 0.26492223 0.61000067 1.0694693e-38
0.68427378 0.26501459 0.61000073 1.0694693e-38
0.69402361 0.26510561 0.61000085 1.0694693e-38
0.70396054 0.26496336 0.61000085 1.0694693e-38
0.71420985 0.26505178 0.61000097 1.0694693e-38
0.72443724 0.26490712 0.61000115 1.0694693e-38
0.73487568 0.26499835 0.61000127 1.0694693e-38
0.74546754 0.26509145 0.61000133 1.0694693e-38
0.75490993 0.26511297 0.61000144 1.0694693e-38
0.76420629 0.26507822 0.61000144 1.0694693e-38
0.77517134 0.26492855 0.6100015 1.0694693e-38
0.7848978 0.26454777 0.61000156 1.0694693e-38
0.79475927 0.26515761 0.61000156 1.0694693e-38
0.80474633 0.26510832 0.61000162 1.0694693e-38
0.81487381 0.26489022 0.61000168 1.0694693e-38
0.8251316 0.26500875 0.6100018 1.0694693e-38
0.83425134 0.26470557 0.61000198 1.0694693e-38
0.84456474 0.26500922 0.61000186 1.0694693e-38
0.85501003 0.26531869 0.61000204 1.0694693e-38
0.86449116 0.26501268 0.61000216 1.0694693e-38
0.57563388 0.27500629 0.61000037 1.0694693e-38
0.5850237 0.27502051 0.61000031 1.0694693e-38
0.59453624 0.27490279 0.61021346 1.0694693e-38
0.60537869 0.27495164 0.61000043 1.0694693e-38
0.61530799 0.27500337 0.61000043 1.0694693e-38
0.62530547 0.27506924 0.61000055 1.0694693e-38
0.63531858 0.27507293 0.61000055 1.0694693e-38
0.64443469 0.27500466 0.61000055 1.0694693e-38
0.65477705 0.27511081 0.61000061 1.0694693e-38
0.66525286 0.27507576 0.61000067 1.0694693e-38
0.67478317 0.27500591 0.61000067 1.0694693e-38
0.68444693 0.27493516 0.61000067 1.0694693e-38
0.69430649 0.27509511 0.61000073 1.0694693e-38
0.70424742 0.27502397 0.61000091 1.0694693e-38
0.71433079 0.27495179 0.61000097 1.0694693e-38
0.72455984 0.27487853 0.61000127 1.0694693e-38
0.73493767 0.27480423 0.61000127 1.0694693e-38
0.74540466 0.27497044 0.61000133 1.0694693e-38
0.75474197 0.27514845 0.61000144 1.0694693e-38
0.76401246 0.27508503 0.6100015 1.0694693e-38
0.77497417 0.27501023 0.6100015 1.0694693e-38
0.78472292 0.27478853 0.61000156 1.0694693e-38
0.79475915 0.27512318 0.61000156 1.0694693e-38
0.80474609 0.27514035 0.61000162 1.0694693e-38
0.8148737 0.27498966 0.61000168 1.0694693e-38
0.8251316 0.27517644 0.6100018 1.0694693e-38
0.83403832 0.27460727 0.61000186 1.0694693e-38
0.84464467 0.27504858 0.61000186 1.0694693e-38
0.85522968 0.27497965 0.61000204 1.0694693e-38
0.86426938 0.27510792 0.6100021 1.0694693e-38
0.57570493 0.28504711 0.61000007 1.0694693e-38
0.58511496 0.28487527 0.61000037 1.0694693e-38
0.59465027 0.28496334 0.61000043 1.0694693e-38
0.60530341 0.28487256 0.61000043 1.0694693e-38
0.61496502 0.28487098 0.61000049 1.0694693e-38
0.6248278 0.28494841 0.61000055 1.0694693e-38
0.63496542 0.28508997 0.61000055 1.0694693e-38
0.64407665 0.28508994 0.61000055 1.0694693e-38
0.65460837 0.2850413 0.61000061 1.0694693e-38
0.66525358 0.28508952 0.61000067 1.0694693e-38
